ply
format ascii 1.0
element vertex 339
property float x
property float y
property float z
property uchar red
property uchar green
property uchar blue
end_header
-2.17367 -7.51424 1.97397 0 255 0
-1.72487 -6.83087 1.75865 0 255 0
-0.800264 -7.1436 1.42623 0 255 0
0.0322912 -7.41566 1.13297 0 255 0
1.07972 -7.80296 0.945172 0 255 0
2.15234 -8.04643 0.853218 0 255 0
3.17231 -8.47937 0.89048 0 255 0
4.0624 -9.02398 1.15456 0 255 0
4.52879 -8.97265 1.41811 0 255 0
4.85973 -4.9603 3.18498 0 255 0
4.27924 -5.45438 2.11289 0 255 0
4.42315 -8.23446 1.80537 0 255 0
3.27747 -7.80229 1.4864 0 255 0
2.2095 -7.45896 1.09786 0 255 0
0.691761 -6.80916 0.696134 0 255 0
-3.20548 -10.2756 10.8132 124 118 94
-3.04163 -10.3754 11.0449 144 146 124
-2.16765 -9.25092 12.698 150 148 106
2.61841 -10.6089 12.1699 179 168 132
2.61124 -10.4457 11.9913 130 100 64
-1.83998 -8.98628 12.4972 218 210 172
-1.79435 -8.96034 12.4598 93 80 53
-1.86328 -8.89519 12.515 175 158 112
2.40764 -9.3493 12.2471 148 120 91
2.47265 -9.02969 11.6926 138 98 76
-0.569745 -7.75675 11.7199 234 229 238
2.42256 -8.28139 10.1332 200 198 176
-0.430856 -6.82814 13.1122 70 35 16
-0.249021 -6.71442 13.3619 187 157 148
2.99534 -7.38517 10.2213 152 128 118
-0.0194003 -6.35818 13.7176 197 181 154
-0.484127 -6.93946 13.0731 70 35 18
2.41638 -8.26581 10.0829 130 128 101
1.65318 -8.15168 10.8612 112 79 55
1.56829 -8.14429 10.8042 150 110 90
1.68115 -8.21067 10.7532 72 60 36
2.46368 -10.3896 12.1293 148 134 101
2.65684 -10.5601 12.1794 219 209 175
3.08206 -7.37656 9.85089 104 72 56
2.15755 -6.95105 11.9577 84 57 56
-2.64637 -9.17497 12.7503 168 167 120
-0.175731 -6.48163 13.5846 198 178 154
-1.85792 -8.88725 12.4598 172 150 104
1.75336 -8.20718 10.6331 180 162 153
2.50441 -9.1173 11.6238 186 142 125
-1.69578 -10.1013 11.66 190 191 152
-3.22927 -10.3442 10.991 128 128 103
-2.8352 -10.3656 11.162 129 132 109
-1.12819 -9.14742 12.5545 149 153 110
2.16143 -9.74047 12.3618 192 190 154
-0.651217 -7.69231 11.6239 114 88 72
0.159408 -7.96382 9.50538 119 124 90
1.80592 -8.23899 10.7125 110 100 82
1.70967 -8.21165 10.9062 159 139 123
1.84407 -8.20309 10.8094 168 148 140
-0.190683 -7.47307 11.2507 114 70 50
-0.417143 -6.78935 13.1982 58 36 20
1.9715 -7.44054 11.5079 160 136 134
3.06193 -7.34531 10.1621 200 183 173
2.32769 -8.69618 11.2243 134 104 72
2.24398 -9.81534 12.5968 194 197 160
-1.61829 -9.23324 12.5776 142 144 102
2.61437 -10.1434 11.5801 145 106 82
-0.146674 -7.38484 11.4203 164 123 106
-0.52449 -7.69165 11.4027 63 38 27
2.18351 -8.65631 11.3394 124 104 84
-2.70676 -10.4039 11.2551 113 116 78
-2.65787 -10.3814 11.3117 158 158 123
-0.815164 -9.7217 11.7914 129 128 96
1.8201 -7.84085 11.1852 59 30 25
-2.82573 -10.3953 11.2028 84 86 50
2.45833 -9.70332 11.4848 193 173 143
2.23958 -9.1878 11.6731 110 81 62
-3.01872 -8.72633 12.458 142 124 72
2.45623 -9.62704 11.6827 156 134 102
3.12215 -7.40888 9.90487 168 147 136
-0.582327 -9.03835 12.4683 148 138 109
2.2399 -5.96255 13.028 129 95 88
-0.519127 -7.4241 13.6938 121 78 60
-0.788076 -9.71702 11.8035 134 134 102
2.42407 -10.338 12.1794 189 190 154
2.55755 -10.3724 12.185 172 164 128
2.37773 -9.65383 12.7451 122 100 72
2.44078 -9.42427 12.3941 63 38 18
2.37899 -8.90942 11.6619 104 68 44
1.05295 -8.12696 10.4458 128 108 102
0.96255 -8.01078 10.4817 58 28 16
1.88926 -7.83138 11.201 48 26 24
2.13884 -5.8154 12.8312 132 108 105
-1.75418 -5.47444 8.73133 138 130 114
2.14968 -7.21875 11.9966 101 74 72
1.93454 -7.64038 11.468 114 84 82
0.123108 -7.44026 9.19501 189 150 126
-1.85424 -8.96841 12.3798 192 182 146
2.4242 -10.3484 12.2309 151 155 120
2.4875 -10.2643 11.9168 198 200 160
-0.691061 -7.70201 11.6189 112 82 62
-0.563387 -7.77176 11.625 154 143 148
2.44068 -9.33539 11.5229 134 95 72
2.45101 -7.74747 11.9911 106 74 67
1.01077 -8.10991 10.3604 116 92 85
1.40267 -9.93596 12.3326 101 92 67
2.83529 -9.43042 12.1334 160 170 124
2.14248 -7.24791 11.9769 111 78 76
3.04298 -7.31348 10.1065 112 83 70
2.47957 -9.67719 11.7586 156 148 112
2.48461 -10.3206 12.4299 190 199 158
2.34463 -5.84084 12.9505 122 90 87
2.83642 -12.5277 10.1118 116 118 74
2.85307 -12.5883 10.2885 78 79 36
-1.84087 -11.621 12.6264 110 116 82
1.63748 -10.8262 10.8762 98 102 86
-1.21781 -9.95157 11.8448 118 120 79
-0.981047 -9.29809 11.432 114 115 88
1.93005 -10.0301 12.5395 154 163 124
0.863459 -9.3649 11.528 104 107 94
-0.419584 -8.32978 11.6605 90 92 84
2.3055 -9.15458 11.4648 186 156 136
2.0642 -7.01676 11.8966 46 20 16
1.62622 -6.59937 11.7813 112 67 60
2.84331 -12.5893 10.2907 138 140 92
1.8137 -5.77653 12.8004 140 92 76
-1.24604 -8.77795 13.6654 148 131 97
0.93956 -8.30967 10.9744 76 58 44
-3.61575 -10.6625 10.9891 130 129 92
2.62622 -10.1408 11.6359 126 89 66
-0.448834 -9.65482 11.3388 165 171 124
-0.893982 -9.11972 12.6682 120 122 72
2.37131 -9.22104 12.0628 144 120 107
-0.0273078 -8.32351 9.8641 95 98 74
-0.999531 -10.7652 11.0528 124 125 76
0.894324 -9.40072 10.7931 119 111 82
2.3714 -5.93579 13.0651 112 80 76
0.133083 -10.4358 13.4217 129 138 100
-0.0708575 -14.1948 13.005 80 86 36
0.967768 -13.4778 11.8432 92 100 58
-2.20401 -11.9562 12.7917 82 92 60
-1.94332 -11.9281 12.7627 116 121 76
2.65377 -12.3521 10.3858 118 122 80
2.48865 -12.2324 10.4655 90 94 47
0.871911 -9.0052 4.56137 91 99 62
1.97292 -10.0587 6.50209 74 80 37
1.98656 -10.0477 6.4746 139 147 102
1.54417 -10.6595 10.9565 84 92 72
-0.981079 -9.85854 11.7776 106 112 71
-0.0584386 -10.1678 11.8693 132 138 90
1.47151 -10.52 11.1106 76 84 66
-0.862811 -9.57086 11.6729 84 88 58
-2.42134 -9.22225 12.6851 119 118 66
-0.648196 -9.50465 11.7477 84 88 56
-0.945303 -9.26459 11.4046 57 60 28
-0.135272 -9.41948 11.5111 64 64 15
2.60935 -10.4282 12.0387 90 57 24
2.44914 -10.3384 12.0504 84 77 42
-1.60447 -8.84337 12.1143 90 72 51
-1.61495 -8.77508 11.997 70 50 30
-0.704809 -9.05352 12.6112 148 150 110
1.47376 -10.0111 13.6521 156 152 114
1.48031 -9.96557 13.6191 154 148 114
0.918285 -9.2842 12.2288 58 54 46
-1.37507 -8.37452 11.7305 144 132 92
2.41738 -9.62579 12.7066 159 135 108
-1.12022 -7.82135 11.5867 86 45 23
2.3645 -8.70305 11.3648 78 45 18
-0.886155 -7.57162 11.9002 172 130 104
2.40718 -8.58049 11.2131 135 108 98
0.718794 -7.9622 11.0449 94 66 57
1.70947 -8.17744 10.9425 70 42 23
1.85157 -7.86147 11.1795 110 86 82
2.63316 -8.10527 9.97816 126 126 108
2.17215 -7.81417 11.5858 56 26 22
1.77978 -6.24068 12.3342 68 23 16
1.70995 -6.2135 12.3289 70 25 16
1.26514 -5.8666 12.8282 107 78 76
1.90316 -5.76097 12.8924 81 36 21
0.212632 -6.03509 8.40721 71 62 44
2.77995 -12.4365 10.1446 160 160 114
2.85303 -12.3986 10.1446 56 58 31
-3.26678 -10.312 10.9525 54 54 30
2.0324 -10.0713 6.49347 58 64 14
1.42467 -10.4282 10.8414 62 70 52
1.32685 -10.2606 11.1389 77 80 68
1.07812 -9.78461 11.3713 70 75 58
0.287976 -9.3586 10.7209 64 64 19
0.237611 -9.19786 10.4936 112 116 82
-1.67065 -8.8278 12.3086 75 55 36
0.989139 -9.51761 11.9368 46 34 24
-1.57214 -8.5835 11.9888 98 66 41
0.862209 -9.36004 11.5148 87 94 82
1.73921 -9.79112 12.6385 100 79 43
2.62159 -9.74479 11.4812 151 110 95
0.730721 -9.02116 12.1655 140 140 138
2.40995 -9.27179 12.3482 93 68 55
-1.09754 -7.82784 11.3074 90 50 28
2.2993 -8.73335 11.4485 133 109 98
-0.9093 -7.58587 11.8823 156 120 92
1.81685 -8.21569 10.7191 124 102 90
1.94415 -8.18001 10.7436 154 134 132
0.243797 -7.53718 9.14327 74 82 48
0.916051 -7.74248 10.8563 174 123 98
1.75077 -7.95254 11.1043 38 12 4
2.07751 -7.02149 11.8039 110 88 88
-1.73723 -5.92223 8.67421 72 67 48
1.73859 -6.70035 11.8567 110 66 62
3.10458 -7.404 9.96272 159 150 144
2.71423 -6.82621 13.0448 82 52 48
1.60858 -6.52495 12.0791 114 84 82
2.21484 -6.61743 12.3331 100 71 70
2.7195 -6.49106 13.1281 114 84 82
1.90499 -5.85803 12.7997 119 84 75
1.87502 -5.80397 12.6709 86 40 26
0.505965 -7.70529 9.3015 134 92 66
2.25983 -8.80724 11.8343 72 46 32
2.18494 -8.84677 11.4067 74 44 33
0.761938 -8.77386 12.0377 114 115 108
0.967976 -9.50969 11.9361 67 60 49
1.66536 -7.91961 11.2879 54 20 13
1.69625 -5.94283 12.7071 104 44 30
0.307096 -9.32018 11.1178 34 42 13
0.508771 -9.30544 11.7794 83 86 78
1.09467 -9.49001 11.5241 65 40 26
0.431289 -8.99241 12.4644 104 99 80
0.696272 -9.09352 12.4926 121 121 120
1.02866 -9.02337 12.5765 12 6 3
0.748528 -8.76998 12.0744 110 110 102
0.993845 -8.04373 10.4572 96 60 46
1.82525 -8.12051 10.9266 125 95 84
1.92437 -7.96457 11.4279 76 40 34
-1.4549 -10.0311 11.7804 95 96 60
-2.19717 -10.2578 11.4463 110 114 70
1.10306 -9.68272 11.7322 160 156 126
2.31418 -6.27053 12.6734 102 73 70
0.981375 -6.23048 12.5311 94 46 33
-3.21229 -10.3293 10.9675 96 92 68
-2.91405 -10.4686 11.1666 87 86 48
-3.60891 -10.6765 11.0176 109 109 67
-2.93435 -10.4885 11.2294 80 79 39
1.75968 -8.07726 10.8751 72 38 23
-2.59408 -13.8406 18.4221 136 140 98
-1.68675 -9.61332 11.2206 94 90 62
2.59178 -7.20178 12.435 85 58 56
-0.736935 -7.75357 11.5008 81 52 36
0.527319 -8.68802 11.7005 74 77 62
-0.770155 -9.58958 11.6652 68 74 42
0.875441 -9.34954 11.5161 82 92 78
1.78877 -8.21672 10.724 72 56 38
1.90944 -8.14424 10.6816 130 110 98
0.834977 -7.64008 10.8114 91 44 18
0.125068 -7.23929 9.20438 113 106 76
2.01637 -5.84666 12.751 118 71 60
-1.84345 -11.6109 12.5269 88 96 61
-0.819804 -10.5804 11.9048 85 98 58
2.49624 -10.5603 12.2306 37 28 6
1.68421 -10.3635 13.7455 93 98 62
-1.59845 -8.71267 12.2465 92 77 42
1.50529 -9.93882 13.2298 116 96 78
0.332659 -8.04039 9.48693 94 102 74
2.18385 -8.64102 11.3349 115 85 68
2.20588 -8.43033 10.9837 142 122 111
2.39013 -8.46753 11.1252 72 35 28
1.8403 -8.17945 10.6113 128 104 90
2.60362 -6.82482 12.7158 73 38 38
-1.10247 -9.64707 11.5704 70 72 48
2.14003 -9.82686 12.4712 56 46 24
0.564155 -8.88928 11.8147 126 122 112
2.31703 -9.0148 11.5521 76 38 18
2.23821 -8.87858 11.6552 66 36 30
2.24804 -8.44543 10.7993 151 126 122
1.78624 -8.1877 10.8263 82 62 44
1.88501 -8.10466 10.5689 154 128 124
0.777402 -6.54593 12.0585 79 35 26
-0.872218 -7.92602 10.0433 64 66 50
1.89416 -7.8219 11.2835 28 6 2
1.05258 -8.06538 10.6783 62 43 38
1.73689 -6.70083 11.855 100 50 42
1.35902 -7.00061 11.6446 75 36 28
1.17196 -7.75974 10.4703 67 28 10
2.60716 -7.22915 12.4055 118 96 94
2.35071 -8.70771 11.3294 64 31 13
-2.94507 -10.2247 11.0321 84 80 54
0.787754 -8.04012 10.8315 12 5 4
-2.40135 -9.11327 12.2149 135 132 82
-1.4555 -10.2812 9.33708 80 80 28
-1.56794 -11.3664 12.3839 97 104 70
0.949356 -10.0315 8.73632 92 91 86
-0.992761 -9.88797 11.9106 106 112 69
-1.8654 -9.26247 12.5893 82 80 31
-3.12171 -8.76802 13.0512 106 86 36
-0.180415 -8.8572 10.458 50 53 16
2.40159 -8.51287 11.2116 163 136 130
0.232986 -6.91546 11.8039 130 92 73
1.74846 -6.69721 11.8809 117 70 60
1.01966 -6.23904 12.3847 135 102 92
-1.43827 -10.0209 11.7353 93 94 58
-1.22338 -9.9436 11.8166 100 102 60
1.43045 -10.4553 11.0527 66 70 52
-2.25012 -9.28639 12.8762 110 108 60
-0.372877 -9.65757 11.5244 157 156 110
-1.90028 -9.26476 12.6195 110 110 60
2.19725 -9.83823 12.2813 140 130 108
2.49008 -8.95805 11.7272 102 63 35
2.35598 -8.86985 11.6069 96 54 26
1.97418 -8.58917 10.8943 20 13 4
0.716018 -8.01664 10.9608 32 16 10
0.398332 -6.98809 11.5875 24 6 1
1.85 -7.57439 11.5097 37 14 10
0.52322 -6.87087 11.8236 104 71 61
0.655718 -6.89007 11.6135 38 10 4
1.97302 -5.89035 12.6021 71 28 20
0.329736 -8.87567 11.158 54 38 20
2.12597 -8.84342 12.3473 48 30 22
1.83115 -7.87053 11.0373 80 43 36
0.768745 -6.88536 11.8247 51 18 10
1.72334 -6.24116 12.2929 104 52 38
2.28177 -6.28431 12.6997 72 35 34
1.07146 -5.49751 13.9024 72 41 34
-0.393207 -8.83895 10.7026 37 40 20
1.99241 -9.65423 12.8631 24 18 10
2.89737 -8.05525 11.9497 88 87 64
2.64938 -7.34138 12.3499 90 59 56
2.65596 -7.30103 12.3323 108 80 77
2.16661 -9.61412 11.8698 94 80 64
0.74531 -6.48471 12.5366 123 96 90
2.54347 -10.7436 12.4192 100 96 60
0.814669 -8.86109 10.8461 114 115 116
2.69563 -9.06227 12.3673 101 74 60
-1.60359 -8.60621 12.084 72 44 26
2.04043 -6.97104 12.3844 120 100 96
-2.64476 -10.3841 11.1914 70 72 30
-3.08168 -10.3559 11.2763 79 82 55
2.52533 -11.0795 12.1164 75 74 36
2.87705 -8.44031 12.6409 41 20 9
2.56171 -8.7974 12.8275 126 95 86
-3.16609 -10.5235 11.1623 126 124 84
2.59138 -7.21757 12.3928 76 54 50
2.70729 -6.90352 12.2647 95 68 66
0.842257 -6.47227 12.1828 114 86 82
1.82898 -7.79009 11.2753 32 6 2
0.755167 -6.65461 12.0684 36 8 2
