ply
format ascii 1.0
element vertex 516
property float x
property float y
property float z
property uchar red
property uchar green
property uchar blue
end_header
-2.06151 0.411455 1.77482 0 255 0
-0.711752 0.16059 1.29461 0 255 0
-3.7776 -0.0670776 2.50188 0 255 0
-3.66521 -0.785024 2.01399 0 255 0
-2.57214 0.284747 1.48196 0 255 0
-0.261268 0.0829542 0.802948 0 255 0
0.230257 0.0133652 0.616908 0 255 0
-0.452024 -0.109339 0.430831 0 255 0
-1.86968 -0.159019 1.81296 0 255 0
2.50807 -2.82184 11.6854 98 78 42
2.34172 -1.66691 10.2423 158 111 88
3.07755 -1.52557 9.66818 196 174 164
2.51227 -1.58126 10.0677 164 122 102
2.34614 -1.49757 10.4935 108 79 68
2.59077 -1.40118 10.1181 132 37 33
3.0614 -1.29199 9.91676 166 138 132
2.46075 -1.34604 10.3231 136 84 74
3.08304 -1.24273 9.88029 189 170 162
2.39408 -1.34336 10.5282 171 132 106
3.00352 -1.23742 9.90368 248 237 228
2.37126 -1.32134 10.6301 148 116 96
3.02037 -1.19369 9.99085 80 54 46
-0.809886 -1.09592 12.3661 152 134 98
4.44376 -0.923978 11.5916 46 24 11
3.05552 -0.965817 11.9831 167 145 108
3.22741 -0.414302 10.8598 162 105 92
-0.769921 -0.475282 12.3017 150 130 105
-4.48899 -0.482415 12.0353 165 138 122
4.10812 -0.278781 10.7358 101 78 60
4.18245 -0.263789 10.7296 50 32 16
3.25688 -0.201258 10.9978 116 98 88
2.45098 -0.149096 11.9507 146 112 88
2.50933 -0.156222 11.9219 64 21 2
-4.48308 -0.200977 12.0893 172 140 114
3.32639 0.00538009 10.9715 89 77 78
3.91136 0.139308 10.8814 86 42 19
3.52622 0.142972 10.8469 135 108 109
3.85118 0.187766 10.9105 77 33 15
-2.10758 0.0855939 11.351 88 35 19
3.4086 0.200413 10.8882 134 94 79
-4.34177 0.0545378 12.1356 160 134 116
3.23346 0.231701 10.9515 67 20 3
3.46463 0.24464 10.8684 152 120 106
2.42015 0.275565 12.0999 141 116 102
3.20253 0.369961 11.0057 229 202 182
-4.16809 0.243834 12.3171 152 130 110
2.61197 0.438109 12.282 83 45 18
4.02371 0.516111 11.3868 110 83 65
2.30435 0.588197 12.5911 180 137 110
4.00218 0.608007 11.3878 34 17 4
3.06914 0.594548 11.3455 138 103 88
3.40874 0.626227 11.1593 44 25 14
3.06903 0.66314 11.4462 110 88 78
3.37531 0.742895 11.2179 122 106 93
2.9884 0.760777 11.5182 24 13 6
-4.6559 0.577361 10.2731 156 126 110
4.0101 0.843392 11.3614 96 52 30
2.38994 1.05369 11.8689 148 86 64
-0.145299 1.08267 10.5292 147 100 78
3.21762 1.26536 11.0287 168 120 96
-0.143379 1.14515 10.5408 137 84 67
2.38412 1.344 11.8582 118 36 36
3.95656 1.40828 11.0574 138 103 86
2.45961 1.43756 11.8027 150 120 116
3.51405 1.3994 11.0447 174 140 126
4.19784 1.52094 11.1193 158 124 114
4.359 1.53702 11.2209 60 37 28
4.10103 1.56285 11.0854 154 97 74
4.44519 1.60299 11.3055 69 46 36
4.2042 1.63122 11.1722 171 118 102
4.28201 1.70841 11.2233 176 150 137
4.30402 1.74492 11.2424 94 68 57
3.01454 1.7265 11.3275 180 142 132
4.52461 1.7845 11.4248 56 38 21
3.04469 1.74786 11.2767 164 103 89
3.68728 1.75098 11.1433 139 68 60
2.91891 1.77947 11.4004 112 56 52
3.66165 1.77559 11.1591 124 49 40
2.96641 1.80201 11.2917 170 101 103
3.29668 1.85179 11.1928 198 124 100
0.905521 1.77054 11.0618 146 130 116
4.01876 1.93255 11.2459 42 28 16
2.97242 1.93009 11.4288 51 19 15
3.01359 1.9413 11.4114 164 134 130
3.29473 1.92596 11.2236 206 141 116
3.1261 1.97797 11.3414 148 114 112
3.08755 1.98899 11.3643 81 56 52
3.19088 1.99624 11.3081 154 122 117
-0.0896544 1.72468 10.2223 48 34 18
3.88245 2.0321 11.2918 137 109 98
3.2222 2.03091 11.3053 74 52 46
3.28895 2.04654 11.293 58 36 33
-0.325221 1.83758 10.3756 66 53 48
-0.397281 1.87302 10.3395 200 184 178
0.29315 1.97057 10.3022 216 202 198
0.224365 1.96561 10.272 55 35 26
0.186854 1.99424 10.2725 66 49 41
-0.318274 2.4493 10.9785 171 152 152
2.13353 -2.07972 11.0862 160 128 104
2.27436 -1.59634 10.7237 127 110 99
-3.59803 -1.36242 11.6754 52 14 2
-3.89258 -1.33111 11.5325 112 62 42
-3.9063 -1.10821 11.5385 149 91 74
3.06912 -0.642326 11.9581 62 36 8
3.20133 -0.418034 10.8495 158 116 104
3.25622 -0.219004 10.8664 86 76 76
2.77176 -0.296893 11.8652 114 78 60
4.07453 -0.0967272 10.8986 122 73 50
3.40453 0.120426 10.8948 57 26 22
3.29564 0.208616 10.893 72 33 22
-2.90024 0.154303 11.1556 92 33 13
2.37503 0.278462 12.2136 54 26 10
3.97171 0.543129 11.3605 122 100 78
2.38975 1.39287 11.864 163 109 108
2.44412 1.42836 11.7916 154 124 118
4.48419 1.56317 11.3452 164 142 132
4.03255 1.71331 11.1938 91 62 52
4.09602 1.71481 11.1422 50 20 8
3.14414 1.84918 11.2476 142 48 38
0.92994 1.78333 10.7769 170 154 148
-0.389767 1.82031 10.3177 74 59 54
-0.508844 1.86085 10.3784 190 170 164
0.175102 1.9229 10.2661 36 21 14
-0.520861 2.6562 11.0259 102 72 62
2.5309 -1.5339 10.1409 119 74 50
-1.36818 -1.74713 12.0497 123 80 60
-1.51683 -1.70436 11.991 159 100 78
-3.68432 -1.54404 11.67 119 80 57
-1.28768 -1.62898 12.0496 124 79 62
-3.81302 -1.39416 11.5085 58 20 9
-1.24859 -1.45534 12.1122 102 64 48
-4.29859 -1.28959 11.5246 122 79 58
-1.39747 -1.08141 12.2726 90 42 22
3.04761 -0.972225 11.9683 112 75 43
3.27398 -0.835593 11.3599 141 122 107
2.71794 -0.450451 11.6878 156 112 92
3.22412 -0.192966 10.9894 141 114 97
-4.46635 -0.332339 11.9756 202 152 120
2.67984 -0.164353 11.8133 44 10 2
3.21452 -0.106228 11.0563 34 17 10
2.56008 -0.15664 11.8009 54 14 4
2.50077 -0.155178 11.925 82 36 14
3.55641 -0.0066278 10.9006 19 10 10
3.62619 0.0604059 10.8478 55 28 26
3.78697 0.0920092 10.895 74 28 20
3.52516 0.142912 11.1257 45 19 13
-2.13022 0.078368 11.3568 82 30 14
3.43434 0.202217 10.8754 50 23 16
3.67208 0.230791 10.8817 63 40 34
-1.88224 0.17515 11.8153 86 36 19
2.54641 0.296806 11.956 166 130 110
-4.63554 0.603726 10.2959 78 30 4
3.68572 0.913715 11.2813 122 103 87
3.2183 1.25786 11.0355 152 103 80
4.11655 1.61452 11.1201 187 158 139
3.04169 1.67795 11.3057 144 101 86
4.1168 1.71729 11.1831 50 22 8
2.99935 1.72425 11.351 180 149 143
-0.0899123 1.55036 10.1332 38 14 5
3.1246 1.99358 11.2997 175 147 142
-4.48121 1.69065 10.5376 112 28 18
-4.58833 2.14962 10.8899 163 129 112
-0.0172609 2.44594 10.8757 54 16 15
-0.300646 2.51477 10.9181 132 106 108
2.4383 -1.93601 10.5054 110 10 8
2.52585 -1.59432 10.0333 156 124 113
-1.81504 -1.8575 12.1937 176 114 90
-0.821246 -1.22089 12.3764 80 62 26
-1.78954 -1.1872 12.5343 59 20 4
-1.64763 -1.09376 12.3529 216 162 130
2.76704 -0.987277 11.7549 173 124 98
-3.84891 -0.724061 11.9684 198 138 109
-0.776119 -0.631045 12.1962 156 112 84
3.38588 -0.414824 10.6779 178 95 68
-4.53331 -0.594923 12.0447 90 61 34
3.18295 -0.307926 10.9282 34 18 12
-1.85865 -0.174087 11.6719 152 99 70
-4.34035 -0.130527 12.0421 172 114 94
3.85538 0.226756 10.919 188 162 144
-2.93788 0.104345 11.2029 76 28 18
-2.78903 0.143952 11.1211 186 128 110
2.48519 0.449182 12.4419 22 16 12
2.99838 0.619116 11.5566 28 20 12
2.3572 1.08549 11.8223 148 74 46
2.42166 1.38859 11.8514 173 140 132
2.48967 1.44869 11.7463 103 75 74
4.05877 1.59072 11.1028 188 160 140
-3.02576 1.86078 12.2656 150 102 80
3.06345 1.96991 11.3699 30 14 12
-4.11445 1.87832 12.2305 200 150 117
-4.20988 -1.14318 11.5067 154 111 84
-3.47285 -0.933551 12.0658 44 12 3
-3.88218 -0.888906 11.6641 169 104 82
-2.72797 -0.60832 13.0627 88 54 20
-0.848609 -0.500818 12.2897 31 10 3
-0.801903 -0.323902 12.3202 93 68 41
2.55196 0.244085 11.9632 168 134 111
3.26018 0.973828 11.4694 108 62 34
-4.078 0.787699 10.4944 143 14 14
2.94892 1.38467 11.297 189 168 161
-0.388858 1.21823 10.3969 24 12 10
-1.68429 1.76656 12.5239 207 152 116
-4.35676 1.81157 12.4773 102 63 28
-3.2044 1.87017 12.2547 58 20 10
-3.70205 -1.47006 11.5779 146 94 72
-2.008 0.442827 12.5352 182 133 108
0.49588 1.10341 11.174 139 36 26
-2.40144 1.58602 12.7207 72 28 16
3.28999 1.77858 11.2577 86 108 94
2.99674 1.81874 11.4869 118 50 54
0.435499 2.26417 10.6375 161 30 31
-0.321595 2.63959 10.9707 82 48 41
-1.83174 -1.21878 12.5253 162 142 104
3.1637 0.202419 10.9636 55 14 2
-4.72327 1.25657 10.1023 114 107 118
3.16286 1.91029 11.2674 177 121 99
-1.05818 1.78002 10.9933 190 170 164
-1.71595 -1.06916 12.2375 196 140 110
3.55596 -0.207143 10.8319 83 46 35
-2.15373 0.00266344 11.338 166 114 98
-4.82178 1.13994 9.94572 124 118 124
-1.81369 -1.87039 12.1793 156 106 84
-1.44089 -1.61007 12.0147 131 80 66
3.27139 -0.909788 11.3781 74 68 49
-0.838391 -0.477482 12.2978 29 8 2
-4.66715 2.2474 10.8853 138 76 31
-3.27456 -0.73345 12.1418 93 57 24
-1.29134 -0.138117 12.2855 58 18 14
2.38696 -1.37963 10.536 110 72 53
3.48266 0.219183 10.94 26 6 1
3.14934 1.832 11.2177 167 101 78
2.53939 -0.195071 11.8636 178 142 124
2.49113 1.43327 11.7208 98 70 68
3.02798 1.67336 11.3075 136 98 84
3.65753 -0.0271268 10.9416 130 92 80
-4.37232 0.0626821 12.1722 156 138 119
3.56804 1.41106 11.1074 164 132 122
2.35779 1.69801 12.1117 27 12 6
-3.90838 -1.16729 11.5512 165 110 93
-2.6712 1.71703 12.3415 48 16 9
3.42199 -0.413469 10.6597 168 100 74
2.71744 -0.167171 11.8563 46 10 2
3.43519 -0.049077 10.87 55 50 56
-2.61679 0.217915 11.1186 120 74 58
3.35481 0.859698 11.4624 96 62 40
4.32618 1.67083 11.1959 154 136 124
3.30734 -0.451227 10.6878 151 54 30
3.26497 -0.61008 11.4368 143 122 107
-2.24844 0.118365 11.3163 180 122 105
3.9624 0.612115 11.3857 21 14 8
3.36996 -1.93034 10.0225 19 14 8
2.33701 -1.62743 10.24 113 68 42
-0.855618 -1.35098 12.4662 154 146 100
3.20312 0.127441 11.0764 180 138 117
-1.9917 0.395622 12.5342 184 135 112
-4.41056 -0.23293 12.056 53 21 12
3.25075 0.0980189 10.9785 178 148 130
-4.07318 0.18237 12.2092 32 8 4
-4.6513 2.10667 10.8315 116 20 16
2.74577 -1.72752 9.87446 210 172 154
3.77174 0.0429385 10.9149 124 74 56
3.31724 0.674403 11.0882 53 30 16
-4.73631 1.24063 10.0542 102 94 103
4.21904 1.56456 11.1511 92 47 37
4.24375 1.70569 11.2232 178 145 128
-5.00784 2.12968 10.5668 106 20 8
-5.32437 2.22683 10.5438 140 40 19
-3.83244 -0.629702 11.8031 105 48 27
3.23864 -0.375717 10.9018 26 11 8
2.27959 0.502753 12.6531 126 102 74
-5.04595 1.88275 10.1764 139 75 36
-3.86083 -1.32278 11.4409 121 73 57
-1.95569 1.71713 12.3479 214 162 128
-4.81456 1.60778 10.1492 21 16 27
-4.90151 2.08803 10.6871 96 11 6
-4.3018 -0.0098596 12.1474 39 10 4
3.35467 0.21546 11.0918 80 38 21
-4.78538 2.30256 10.923 136 80 24
-3.93726 0.236134 11.9974 65 26 14
-4.12348 0.762333 10.806 140 12 14
-0.542563 1.17544 10.3739 20 11 9
-4.3801 2.57524 10.7609 126 16 16
2.23251 -2.28195 11.2161 142 120 92
3.75706 -0.00994853 10.9308 127 76 60
-4.86802 1.29342 9.98706 103 98 110
3.27195 -0.286225 10.8701 68 57 58
3.34507 0.211002 11.0117 70 34 18
4.06303 0.578491 11.3908 46 24 10
0.546336 1.82537 10.4586 152 128 115
-4.97137 1.91336 10.4888 162 136 119
-0.805711 -0.919939 12.1786 138 90 67
-4.58136 1.84883 10.7598 158 136 119
4.17601 1.62425 11.1746 181 138 118
-4.99238 2.89962 10.4334 122 14 18
-1.66317 1.53669 12.3689 190 142 118
2.53889 -1.33634 10.2498 136 85 78
4.53758 -1.11361 11.5593 56 40 24
-2.1967 0.182648 11.3439 102 46 30
2.70855 1.80722 11.5885 110 83 76
-2.09862 -0.0491465 11.4407 86 40 25
-2.75863 0.237344 11.1268 111 60 46
3.67249 0.383255 11.0998 102 59 42
-3.76296 -1.12867 11.5451 53 12 3
-1.42971 -1.15131 12.2603 133 84 62
3.25073 -0.906493 11.3833 90 81 63
3.30473 0.116706 10.9495 176 150 138
2.41031 1.36201 11.7855 161 132 122
2.5507 -1.32518 10.2512 115 86 78
3.22826 -0.7366 11.4507 118 110 92
3.5374 0.776473 11.2756 29 15 7
2.42226 -1.42611 10.4196 118 31 25
3.55867 -2.7661 10.5639 176 124 101
-0.557063 2.6327 11.0377 70 38 30
2.11094 -2.1845 11.1545 97 63 30
2.52353 -1.29606 10.307 40 15 5
4.1265 1.72657 11.1693 104 76 63
-1.01506 1.88831 11.0248 102 74 63
3.66392 -2.62319 10.4713 44 28 16
3.60604 0.745484 11.3235 73 32 8
3.43856 1.41479 11.0716 128 82 56
3.19709 2.00429 11.3727 164 133 126
3.45785 -2.71456 10.598 170 118 86
3.36167 -1.59581 9.84272 106 88 80
-1.85014 -1.44023 12.0331 98 26 9
2.53231 -0.19596 11.8426 187 152 128
-4.42558 0.0354287 12.1372 105 72 50
3.34469 0.129122 10.8645 164 120 104
4.55915 1.47902 11.3984 134 82 66
3.37733 -2.86526 10.6311 150 147 99
3.31813 -0.748676 10.7592 134 34 28
-2.06314 -0.400667 12.0399 160 112 84
2.86706 0.840086 11.8517 88 74 54
4.03671 0.940237 11.4427 174 150 139
3.61157 -2.58725 10.456 14 12 12
-1.92645 1.50225 12.5277 182 130 107
2.40965 -2.11726 10.6855 159 141 119
3.67827 -2.98483 10.4246 166 132 100
2.84767 -2.78463 11.9159 104 87 60
4.97016 -2.31442 10.8373 104 75 40
4.97102 -2.25878 10.7202 148 126 93
4.8571 -2.0282 10.4404 158 128 101
3.04194 -1.63214 9.66842 246 228 219
3.18272 -1.62359 9.70404 220 198 193
3.15632 -1.63044 9.85721 195 168 160
4.05434 -1.46067 9.6798 179 136 118
-1.99005 -1.87367 12.4032 141 127 90
4.56283 -1.4514 10.0658 156 120 88
3.37073 -1.38199 9.93406 84 69 63
3.39078 -1.29519 9.8127 98 82 76
3.08394 -1.28038 9.84774 78 57 46
3.44334 -1.17935 9.84346 89 72 67
3.1082 -1.17658 9.90471 174 152 142
3.13754 -1.17812 9.88089 91 68 60
4.28102 -1.18614 10.0489 115 85 63
3.84889 -0.76132 11.2468 148 120 106
3.19724 -0.669646 10.7112 194 124 100
2.71006 -0.756001 12.0356 128 68 50
3.59471 -0.595539 10.7258 233 182 156
3.32838 -0.687791 12.4976 106 91 46
3.19961 -0.526978 10.6815 141 44 20
3.42521 -0.458314 10.6394 84 23 5
3.60007 -0.463975 10.7941 148 90 70
3.95672 -0.434569 10.9128 134 83 67
3.26884 -0.28238 10.8179 140 136 140
3.43761 -0.247458 10.7897 92 80 80
3.3241 -0.203334 10.7457 75 70 74
3.05846 -0.205352 12.2251 28 26 16
3.53723 -0.124812 10.7304 79 68 63
3.20509 -0.164239 12.5594 152 148 126
3.3357 -0.0936518 10.8977 152 147 150
3.77323 0.0113004 10.9376 100 45 24
4.79123 0.16181 11.9307 125 84 64
3.24482 0.16181 11.0255 216 188 170
2.42984 0.33928 12.0734 119 96 82
2.64687 0.334581 11.8366 44 20 7
-2.60982 0.297397 11.2434 133 90 77
2.63978 0.358462 11.9899 106 83 66
-2.4773 0.492729 13.1692 144 120 102
4.10154 0.561505 11.3823 44 22 6
3.01742 0.581805 11.2727 53 17 5
4.15343 0.715367 11.2792 34 13 8
3.50529 0.711297 11.2344 36 22 14
2.85036 0.835834 11.8282 86 71 52
4.03521 0.878735 11.369 104 62 47
-4.13302 0.813869 10.576 122 27 8
3.35493 1.01489 11.3055 222 186 165
2.73557 1.21367 11.3607 196 152 127
2.30627 1.30419 11.8691 215 118 108
3.22078 1.35297 11.0923 203 163 144
4.06885 1.52703 11.0544 194 146 126
4.50296 1.79402 11.4612 52 34 20
4.51734 1.82875 11.4717 189 166 152
-0.473501 1.73973 10.4013 194 142 138
-0.456303 1.80074 10.3935 204 176 170
-0.279293 1.86006 10.3161 74 62 60
3.82947 -2.49433 10.5393 63 54 44
3.29725 -1.35888 9.81603 110 94 87
2.99201 -1.23413 10.039 241 229 221
-3.53398 -1.48374 11.8437 136 97 72
4.27861 -1.18431 10.066 128 96 74
4.47452 -0.986501 11.3684 110 92 62
4.43005 -0.939162 11.634 19 8 1
3.19003 -0.673591 10.703 196 122 100
3.71774 -0.615298 11.0848 181 128 103
3.44327 -0.25312 10.8442 38 27 28
4.19488 -0.119136 10.8728 178 142 126
3.15568 -0.0320812 10.9901 164 133 116
3.49446 0.719859 11.2736 40 32 26
-4.37861 0.566511 10.3738 166 144 116
4.13063 0.741706 11.229 170 145 127
3.37053 0.763564 11.2988 74 48 32
3.96591 1.58265 11.1184 150 115 100
0.55194 1.54391 10.6902 152 106 94
-0.285807 1.86777 10.4033 82 70 68
3.70938 -2.8196 10.5566 144 126 82
3.53899 -2.59855 10.4346 33 18 12
5.0024 -2.5883 11.0929 102 74 40
4.75532 -2.60782 11.3704 110 86 52
2.2192 -2.25315 11.1016 150 130 105
3.35254 -1.92236 9.99932 25 14 6
2.1389 -2.00254 10.6727 146 124 102
4.21352 -1.51126 9.77306 125 82 54
4.25941 -1.53443 9.97391 108 63 34
-1.72533 -1.85633 12.1556 92 50 34
3.08457 -1.30284 9.90143 62 41 32
2.42659 -1.33861 10.2593 162 118 109
4.17234 -1.24357 9.99554 101 102 88
-3.53371 -1.47644 11.8987 150 96 68
-4.25204 -1.28124 11.3624 119 78 59
2.83323 -1.09513 10.7331 93 61 32
4.49442 -1.09386 11.517 22 16 10
-0.825528 -1.20984 12.6663 72 49 18
2.82203 -1.14618 12.1241 122 83 44
3.83791 -0.769938 11.2595 158 136 124
2.81949 -0.326226 11.8541 114 74 44
4.15437 -0.268302 10.7549 76 62 52
2.45032 -0.223916 11.9841 76 48 23
3.22745 -0.0141484 10.9535 34 22 20
3.58326 0.0462662 10.6554 42 16 10
3.13974 0.159648 10.7703 186 156 138
-2.2042 0.183101 11.2088 75 22 7
-3.89071 0.295008 12.0708 64 24 6
-2.66118 0.314171 11.1034 82 33 21
2.39485 0.442423 12.7985 154 138 113
-2.47377 0.467704 13.0759 154 136 112
2.38753 0.589025 12.5416 150 94 64
3.93175 0.635341 11.4488 17 10 4
3.04091 0.679047 11.4127 150 126 116
3.56786 0.685589 11.3515 137 114 102
2.98084 0.736921 11.4827 20 15 12
4.21744 0.755853 11.3702 184 156 141
5.01209 0.8016 11.8009 122 90 62
3.36221 1.02218 11.3628 190 154 132
-4.30509 0.88083 10.4095 164 144 119
4.31202 1.68924 11.2772 28 10 6
3.53641 -1.70861 9.59916 21 10 5
4.45671 -1.8648 10.2879 138 112 86
3.0295 -1.59266 9.47867 214 196 192
2.96163 -1.58018 9.74573 164 140 132
2.49566 -1.55257 10.1458 106 58 33
3.91731 -1.42403 9.7195 118 78 60
3.26176 -0.868472 11.6259 72 82 58
-0.990647 -0.906175 12.2516 144 94 75
-2.36085 -0.818608 13.5707 91 60 24
-0.799835 -0.641523 12.1917 156 106 80
4.39578 -0.495949 11.0921 110 72 38
2.58059 0.145 11.7046 121 81 57
3.80226 0.28674 10.9419 177 149 125
4.23536 0.616133 11.4666 184 154 128
4.65375 1.21673 11.4387 163 141 129
2.83707 -1.6111 9.74576 114 69 42
-1.99416 -1.86141 12.5544 53 26 8
4.61943 -0.860707 11.8078 149 134 93
-0.999599 -0.675872 12.4966 162 114 92
-0.675834 -0.634779 12.2798 92 68 36
-1.02369 -0.266401 12.5777 27 8 2
3.24157 0.622411 11.4196 116 85 70
3.6595 -1.53012 9.53355 165 144 136
-1.43301 -1.44711 11.9804 148 96 74
3.7127 0.100803 11.0031 46 22 18
-3.2504 0.174602 11.5444 165 106 86
3.95647 0.301202 11.2504 181 152 134
-2.3901 0.519648 12.5165 50 18 6
-0.482986 1.79326 10.5413 161 128 122
3.80258 -2.46858 10.4416 185 171 158
2.24825 -1.63814 10.6165 108 92 79
-2.06572 -0.0655362 11.4958 141 96 78
3.42209 0.121528 10.9755 136 98 89
2.38273 0.373082 12.2317 159 136 125
3.96481 1.59362 11.0867 140 110 95
-0.768614 1.73033 10.5764 92 66 58
4.46933 -0.958917 11.5834 59 36 24
2.48418 -0.31249 12.0347 104 77 50
3.34644 0.0160102 10.9225 38 26 28
3.68412 0.0227755 10.8655 47 13 4
-4.14921 0.274666 12.3648 94 66 50
2.99571 0.601171 11.5226 40 26 16
3.38088 1.47251 11.3001 176 151 142
2.13814 -2.05056 11.1838 99 75 42
4.61363 -1.74113 10.0462 158 137 111
-3.51506 -1.32056 11.4158 44 8 1
-1.80138 -0.54216 11.9089 129 80 50
3.79217 0.194002 10.7452 114 78 64
2.61781 0.365715 12.1251 32 12 6
-1.70056 1.57249 12.4537 193 140 116
2.70434 -0.87652 11.8975 136 130 87
2.84386 -0.474859 11.8989 40 12 2
-4.26549 0.220183 12.2564 92 47 24
-3.86679 0.271633 11.8607 66 28 12
3.52523 -0.092101 10.8355 22 16 17
2.39805 0.287683 11.8489 32 14 2
2.42005 0.393374 12.2083 39 26 21
3.0009 0.646671 11.5185 22 15 12
-4.68488 2.2637 10.9132 126 72 23
-4.43965 -1.62234 11.8115 90 72 36
-0.900361 -1.79593 12.6135 65 50 22
