ply
format ascii 1.0
element vertex 665
property float x
property float y
property float z
property uchar red
property uchar green
property uchar blue
end_header
-1.41276 0.5542 -0.37043 0 255 0
-2.58096 0.627009 -0.194138 0 255 0
-0.110251 -0.327323 -0.974211 0 255 0
0.476972 0.232865 -0.0242141 0 255 0
-2.92305 0.241222 0.492703 0 255 0
-1.27617 0.253733 -1.66996 0 255 0
-0.153392 -0.616201 -0.274738 0 255 0
-3.08447 -0.135197 1.04874 0 255 0
-0.0188564 -0.0857033 0.092906 0 255 0
-0.952073 -0.0480357 7.05816 28 28 26
-0.673391 -0.113652 6.67199 1 8 12
-1.37133 -0.472895 6.43659 167 168 169
-1.0139 -1.2324 6.58729 22 6 3
0.198821 -0.188056 6.74311 5 8 8
-1.5914 -0.584278 6.6225 162 164 164
-0.799689 -1.00409 6.70801 34 6 4
-0.593662 1.31455 7.12432 2 6 2
-0.167818 -1.82016 6.30086 157 60 15
1.39717 -0.49147 5.80391 122 123 124
-1.73375 -0.486963 6.41401 158 160 160
-0.964865 -1.10455 6.57716 64 73 74
-0.334408 -1.03124 6.10793 178 180 168
-0.857844 0.483579 6.98184 168 172 171
-1.82234 -0.378811 6.51589 14 16 14
-0.584544 1.32336 7.09099 4 2 0
-0.0509275 -0.333098 6.4448 72 68 61
-0.79411 -0.159239 6.80276 161 168 166
0.985486 -0.800444 6.05904 2 4 2
-0.797192 -1.32977 6.56413 10 12 12
-2.08117 -0.0497583 6.2045 0 1 0
-0.427006 -0.62639 6.32892 184 186 180
0.0857652 -1.71836 6.10243 47 6 1
-2.06565 -0.0566252 6.21318 2 2 1
-1.49856 -0.639405 6.65172 12 14 13
-1.5981 -0.270557 6.21752 0 2 0
-0.902018 -1.37096 6.65867 160 160 162
-0.805093 -0.0526589 6.9106 38 12 0
-0.919945 -1.09357 6.56737 10 15 16
-1.1943 -0.788827 6.60959 0 2 4
-0.906751 -1.37545 6.63373 158 161 164
0.210409 -0.609537 6.23727 154 156 159
-1.03774 -0.756879 6.70996 162 166 166
-0.273628 -1.01981 6.06453 170 170 158
-0.011494 0.111985 6.55721 156 160 162
-2.17445 0.0526698 6.18168 142 143 142
-2.51369 0.674455 6.01907 6 6 4
-2.39963 0.73433 5.96819 1 4 0
0.199965 -0.580644 6.19408 150 153 156
-0.59991 -1.09193 6.43854 173 98 64
-2.02489 0.277043 6.0312 174 68 30
-0.622824 -1.77189 6.27666 174 53 10
-0.703465 0.965524 6.75516 132 128 116
-2.13574 0.431619 6.0079 174 75 36
0.215816 -0.509391 6.21834 155 158 160
-0.712132 1.19336 6.95461 162 158 152
-2.19036 0.512196 5.9672 170 66 20
-0.284126 1.39864 7.28139 129 138 128
-0.579266 -1.22149 6.40287 197 96 41
-0.0525028 -1.06161 6.10176 57 28 14
-1.90718 0.109306 6.13802 170 57 16
-0.514005 -1.61803 6.2918 154 159 168
-0.0452407 -1.01101 6.06041 66 22 10
-0.161018 0.153663 6.78571 155 159 160
-0.4018 -0.938733 6.05971 70 72 64
-0.181694 1.36036 7.40934 136 139 133
-2.24429 0.715895 6.3259 115 34 12
-0.52113 -0.245369 6.82292 25 27 25
-1.06279 0.583515 7.00468 170 172 172
-0.417316 -1.09601 6.09839 84 89 80
-0.177002 -0.704915 6.29021 153 153 148
-0.140344 1.31814 7.39179 139 138 134
0.896809 -1.11256 6.0595 150 152 151
-1.83919 0.0371003 6.08925 166 48 7
-1.0543 0.398023 6.77366 170 170 168
0.274064 0.429072 6.78503 157 164 161
-0.517759 -1.56854 6.29172 156 160 165
-0.949004 -1.7046 6.45677 160 160 164
-1.91837 -0.318737 6.38284 15 17 16
-0.49966 -1.23405 6.30018 202 164 154
0.346723 0.0685232 6.44251 182 64 7
-0.277123 -2.03026 6.18437 158 62 14
-1.39366 -0.568005 6.58725 0 2 0
-0.355659 -1.16837 6.24924 109 109 101
0.0213683 -1.88262 6.04357 75 30 14
-1.17478 -1.14827 6.51361 97 16 4
-0.445043 0.485971 7.03127 163 164 165
-0.246279 -0.812992 6.25114 178 178 174
-0.207004 -0.778083 6.28941 170 170 164
0.0877921 -0.582117 6.47779 152 150 146
-0.390407 -1.4463 6.30606 169 73 10
-0.35716 -0.642966 6.40726 186 186 183
1.11267 0.706371 7.0151 141 144 142
0.0155306 -0.660578 6.33807 83 76 66
-0.348 -1.28124 6.13027 166 72 32
-0.433604 -0.848659 6.29326 191 190 190
0.308828 2.06241 6.92594 134 135 129
-0.758908 1.14739 7.15516 166 164 158
-2.0047 0.113264 6.11132 6 2 3
-0.209635 -1.23986 6.10751 98 34 7
1.40889 0.121113 5.70045 0 2 0
0.29325 0.14021 6.62359 161 70 26
-0.451567 -2.11446 6.34774 150 153 152
-0.169629 -0.928934 6.01759 128 122 110
-0.366525 -0.752774 6.32297 182 183 180
-2.05295 0.657075 6.08667 35 33 30
1.5783 -0.782945 5.86094 135 138 140
-0.501061 -0.673338 6.43141 186 188 186
0.124383 0.523089 6.81543 156 160 162
-1.94658 0.0431461 6.07757 2 8 3
-0.490493 -0.727029 6.33097 188 189 186
0.893424 -1.16092 6.03327 151 154 155
-0.977089 -1.03605 6.56614 60 61 60
0.0643976 -0.254458 6.51618 162 164 164
0.469535 0.291419 6.5946 164 59 9
-0.456038 -1.73356 5.95714 178 74 16
-0.243614 -1.69963 5.86952 141 44 6
-2.33139 0.668431 5.94324 2 1 0
-0.873681 1.10431 6.913 158 156 151
-1.02465 -0.983144 6.58308 84 86 84
-0.97264 0.879937 7.06199 174 175 170
-2.29553 0.512086 5.94446 0 3 9
-1.04444 -0.91546 6.6049 64 62 54
0.29074 0.883798 6.86321 142 144 138
-0.143512 -0.682242 6.30013 147 146 140
-0.546804 -0.893867 6.71665 190 192 190
-2.04708 0.382246 5.99907 151 48 22
-0.520664 -0.50039 6.58767 162 165 165
-1.83565 -0.0561384 6.18787 18 21 22
-0.546103 1.66232 6.63721 97 29 8
-0.484033 -0.644127 6.43036 191 192 190
1.56517 -0.150241 5.76464 110 112 112
-2.34877 0.681813 5.82406 1 2 4
-0.659736 1.68392 6.59418 149 55 13
1.12013 -0.0184523 6.13096 121 122 123
-0.86647 1.77411 5.87514 188 81 30
-0.774466 1.76786 6.47491 160 52 4
-0.00116558 -2.19378 6.51996 138 59 22
-2.29143 0.74657 5.75397 136 44 11
-0.483383 -1.47628 6.35402 156 165 162
1.20233 1.47908 6.56035 114 114 108
1.51915 -0.946152 5.86563 136 138 142
-1.82083 -0.250639 6.25258 1 4 2
-0.613424 -0.53643 6.57088 163 166 167
0.106129 -1.23062 6.14301 130 70 52
-2.10411 0.909332 5.93595 144 144 142
-2.37691 0.305804 6.04329 126 126 125
3.59128 -3.556 8.81243 149 150 152
-0.729938 1.82824 6.46817 168 62 13
-0.204427 -2.17163 6.06177 154 156 157
0.0326655 -1.19348 6.07245 136 48 35
2.66425 -2.88165 8.93937 149 150 153
3.54026 -2.24275 9.08402 141 144 146
-1.02078 1.08435 7.05648 148 149 143
-1.35804 -2.96805 9.27627 164 166 168
3.21826 -2.94667 8.95998 144 146 148
-0.999705 0.23053 6.99662 167 170 169
0.655699 0.576307 9.82612 160 162 164
-0.827693 -0.704956 6.60966 160 165 164
2.35763 -3.4673 8.93313 144 146 148
-0.578843 -0.43677 6.69753 164 164 166
1.88822 -4.03942 8.77363 149 150 153
-0.0241468 0.771864 6.87929 162 164 166
2.59375 -3.33912 8.85818 149 150 153
3.26286 -3.6577 8.75192 148 148 152
-0.511889 -2.0399 5.80524 150 154 156
0.0339687 0.879224 6.79899 145 147 143
1.4028 -3.7803 8.98992 155 158 161
3.40182 -3.45205 8.86226 147 148 151
2.28607 -3.00392 9.22473 148 151 154
2.13408 -3.82534 8.83897 150 150 154
2.14741 -2.89165 9.10748 152 155 158
4.31758 -3.97011 11.6665 143 146 148
-0.845209 -0.730818 6.85317 161 166 166
-1.1037 -3.048 9.33917 158 161 164
-0.818689 1.3391 7.16663 140 144 139
0.531981 -3.9478 8.74616 149 152 155
3.02256 -3.33964 8.94073 146 147 150
0.0144983 1.6514 7.22233 120 116 108
0.14414 -3.7288 9.04142 151 155 158
0.00644928 0.82529 7.30677 160 161 162
3.61357 -2.28532 9.02533 139 142 144
2.22613 -2.90205 8.9797 146 148 150
-4.19758 1.68019 10.023 81 77 65
3.40544 -3.12502 8.93394 144 146 148
1.61181 1.48133 7.04431 120 121 116
0.651525 -1.34642 4.72295 148 149 152
-2.50382 -2.78349 9.3461 132 134 134
-1.76933 -2.42997 9.43504 158 159 161
-2.43411 -2.76373 10.8413 140 140 142
-1.88692 -0.652087 6.60975 154 156 158
-1.63658 -3.39824 9.2955 154 156 158
-2.46393 -3.29827 9.21032 130 132 134
-1.76357 -3.43474 9.34174 155 158 159
-4.6631 1.78891 8.71438 85 84 76
1.80154 -3.96999 8.88914 148 150 152
-0.495253 -0.13458 6.66893 3 5 4
-0.442211 0.0911442 6.9792 70 12 6
-0.432696 0.0847397 7.01173 73 10 4
1.07882 -0.373557 6.07827 144 146 144
1.31236 -0.701542 5.95891 76 78 76
-0.579748 0.697153 6.99942 11 11 6
0.163379 0.0220114 6.52877 112 116 114
0.199856 0.103593 6.61905 15 17 23
0.525973 -0.514455 6.07761 157 161 162
0.179771 -1.37134 6.23094 98 84 70
0.879576 0.711276 6.76422 86 81 66
-1.52667 -0.0669286 6.0408 82 12 4
0.991656 -0.187726 6.05196 142 145 145
0.212263 -0.681833 6.25753 164 167 168
0.341887 -1.35642 6.22871 159 160 161
0.105249 0.19394 6.61295 153 160 163
0.142137 0.178835 6.65238 166 166 165
0.74128 1.07699 6.70387 166 164 158
0.402868 0.767901 6.69893 184 182 178
0.0777246 0.198511 6.59098 164 170 170
0.854245 1.10266 6.74963 11 4 0
0.142713 0.29019 6.63513 190 73 16
0.973361 -0.564441 6.12028 2 4 2
-0.027574 0.152259 6.75349 165 168 169
0.729705 -0.391976 6.05934 4 6 6
0.519776 0.539357 6.69076 3 5 3
0.199461 0.303274 6.58911 178 74 22
-0.149694 -1.36478 6.12808 147 96 38
-0.206226 -1.0198 6.01189 140 140 126
-0.377637 -0.930839 6.05936 84 82 70
0.799669 -1.1708 6.07088 42 44 46
0.81011 1.45534 6.5395 76 9 2
-0.72458 0.97496 6.88936 178 170 160
-0.0243954 -1.50839 6.04565 82 24 11
1.06044 -0.876686 5.85657 157 158 160
-1.75196 0.0323424 6.08212 120 26 6
-1.98706 -0.152281 6.21813 2 4 2
0.0590598 -1.27491 6.16324 106 96 86
-0.463157 -0.409875 6.50795 188 190 186
0.0724549 -1.28072 6.18323 106 98 84
-0.3894 -1.48198 6.2549 188 80 12
0.352333 0.171803 6.4845 160 54 4
-0.0602829 -0.629924 6.33061 126 120 108
-2.21311 0.454615 6.0012 12 2 0
-0.681388 1.01233 6.90296 132 123 113
0.548684 1.03583 6.67373 185 184 175
-0.228126 -0.522217 6.40202 180 181 173
-0.00627627 -0.941654 6.16658 98 40 15
-1.00884 0.295449 6.75847 166 169 169
-0.000583068 -0.993671 6.10593 101 46 26
-2.43888 0.462891 6.1382 54 55 51
-2.1677 0.392985 5.9619 15 3 0
-0.532672 -1.87108 6.24663 176 88 43
-0.452023 1.81235 6.64842 77 17 4
-0.46569 1.89305 6.60168 98 71 56
-1.88378 1.09487 10.3227 161 162 162
1.50404 -0.937408 5.78335 148 152 154
0.0306038 -0.80959 6.25352 128 118 108
-0.540108 1.77562 6.58405 113 26 5
-1.93061 0.30214 6.05784 105 24 3
1.20059 -4.32566 8.88108 154 158 160
2.92643 -2.26485 9.20829 151 154 157
0.469306 -3.94435 8.98711 156 160 162
3.39837 -2.76148 8.93904 148 151 154
0.336533 0.26079 6.54159 162 58 10
-1.73021 -3.1264 9.44422 160 163 166
3.75271 -3.78551 8.96565 146 148 150
3.23138 -3.96907 8.76325 149 150 153
-1.65723 0.489507 10.2011 164 166 166
0.0835453 1.23411 6.8122 134 134 128
2.80198 -2.26723 9.19637 156 158 161
4.46779 -4.2529 8.67781 148 148 152
-2.55346 -2.93135 9.50303 134 135 137
0.125149 -3.88483 9.11953 156 159 162
3.74339 -3.42062 8.65627 148 150 152
-1.61266 -2.79152 9.7519 164 164 166
-2.30337 -3.81256 9.23229 142 145 146
0.453119 0.660872 6.73841 3 4 4
0.614322 0.774485 6.6695 188 188 180
-0.626425 -0.0398099 6.69496 104 108 106
0.56142 0.968904 6.76191 122 118 104
-0.108322 0.695467 6.87673 168 172 172
-0.0574754 -0.96297 6.08483 63 32 16
0.662401 0.444498 6.7733 24 25 24
0.383535 -0.042126 6.76657 132 46 15
-0.727036 -0.00596674 6.69507 60 62 60
-0.297231 -1.1835 6.0616 172 170 160
0.447904 -0.0607771 6.62972 120 42 18
0.687581 1.46522 6.4859 194 85 32
0.794002 -0.439853 6.10167 2 4 2
-0.232009 -1.14748 6.07526 146 142 131
-0.0055795 -0.501844 6.49109 86 79 67
0.221917 0.556867 6.71479 160 172 172
-0.378724 -0.163869 6.5621 186 188 185
1.43985 -0.26612 5.75886 5 7 6
-0.28607 -0.615084 6.38752 151 152 147
1.44933 -0.27744 5.76811 11 14 14
1.49814 -0.768352 5.64438 145 146 148
0.82493 1.34565 6.73408 152 50 12
-0.268932 -0.410311 6.47239 182 183 175
-0.388879 -0.781404 6.33699 180 180 175
-0.829284 -1.5057 6.62954 162 162 166
0.549691 -1.47606 6.09112 156 159 162
-0.178938 -1.83902 5.96061 126 33 1
3.56392 -1.3134 9.3157 124 127 128
0.70346 0.0462181 6.68542 152 157 158
-0.42095 -0.0425385 6.84758 164 167 166
-0.816254 -0.976181 6.67341 49 4 0
-0.037109 -1.76459 5.99553 84 28 12
0.604535 0.32107 6.57917 98 37 20
0.0869899 -1.62469 6.12147 156 159 159
-0.0526967 -0.0197028 6.59622 155 160 160
-0.896019 0.482069 6.94909 168 172 172
-1.3497 0.553266 6.80059 170 172 172
0.411683 0.56923 6.71928 6 8 10
-2.00344 0.184737 4.82048 156 152 150
0.252259 -1.44514 6.06651 152 156 160
0.227723 0.0433122 6.61837 80 81 84
-1.82453 0.364909 6.29076 158 162 159
0.155821 -0.385155 6.42252 157 161 163
-0.129389 -1.2673 6.03916 120 40 10
-0.316689 -0.126125 6.57653 180 182 180
-0.361845 1.5101 7.09232 98 34 14
-1.00087 -1.08162 6.55557 89 90 95
-2.27862 0.833661 5.84665 114 28 2
-1.7899 -0.366653 6.3191 1 2 2
-1.38774 -0.907153 6.75541 128 131 134
-0.443222 -1.03576 6.11528 178 170 158
-2.24108 0.438626 5.9898 0 2 4
-0.345004 -1.77018 5.98853 170 78 25
-0.173985 -0.535346 6.36874 172 173 166
0.458557 0.929484 6.73477 178 177 170
1.67086 -0.862072 5.90232 133 137 139
-0.411453 -0.696988 6.27821 176 177 172
-1.72668 0.513291 6.50946 167 169 168
4.50964 1.03873 7.72986 50 55 57
-0.758354 1.72591 6.51363 161 57 10
-0.592763 -0.665026 6.5471 165 168 169
5.19941 0.939921 9.16146 63 66 66
4.38221 0.961844 7.81243 58 60 62
-0.400198 -1.54147 6.32443 186 74 14
-0.176917 -0.592922 6.34596 158 160 154
3.8296 0.686625 7.68361 87 90 93
-1.0097 0.344634 6.85059 172 176 173
-0.274044 -1.89499 6.02993 170 68 14
2.39098 0.295894 5.85055 93 95 98
-1.16426 -0.00881608 6.78509 169 170 172
0.27727 -1.94945 6.14024 154 158 160
-3.43329 1.47148 7.73441 110 110 102
0.869232 -1.64161 6.59195 158 162 164
2.38365 -0.0628148 6.04045 107 110 112
1.22438 -1.25192 6.15086 140 143 146
-0.775531 -1.44975 6.45179 160 162 164
0.99746 -2.3081 5.90362 146 150 153
0.0786772 0.696573 7.36757 160 164 166
4.89064 0.979295 8.86885 79 80 78
1.32387 -0.910189 5.8159 4 6 6
1.14993 -0.92539 5.94872 149 152 152
0.245313 -0.96879 6.25212 161 164 160
1.39181 -0.612254 5.79111 0 2 0
1.19961 -0.881884 5.86712 142 145 145
-0.553088 0.339073 6.883 46 46 48
-0.937836 -1.11527 6.67956 18 22 26
1.24786 -0.84887 5.89562 143 146 146
-0.17231 -1.47439 6.43957 20 14 5
-1.71292 0.210306 6.46546 156 156 154
1.18953 -0.734684 5.96253 10 12 11
1.51191 0.380242 5.98154 20 22 21
0.142263 -1.80626 6.05208 94 28 16
0.885658 -0.176973 6.05558 138 142 144
-0.685195 0.810162 6.46949 174 174 164
-0.448528 0.293558 6.98585 170 175 174
0.279116 0.0123405 6.52542 38 15 12
0.755823 1.22993 6.87945 2 6 8
0.878696 -0.334951 6.07588 1 3 2
-0.478931 0.73213 7.00683 166 170 166
0.86939 0.802046 6.84523 89 84 72
-0.611653 -1.33087 6.46029 190 196 190
0.307917 -1.40886 6.15387 156 158 161
1.33002 -0.195021 6.03977 4 6 4
0.33147 -0.805966 6.09848 38 40 40
-0.688846 0.0320234 6.69802 12 10 12
0.477464 0.0749041 6.83977 154 54 16
1.4381 -0.0341554 5.79676 6 8 4
-0.849483 0.157202 7.06749 128 38 6
-0.548327 0.584277 6.81772 56 58 56
-1.21314 -1.04838 6.5808 49 3 2
1.16178 1.28506 7.10577 130 130 125
-0.592591 0.165466 6.89198 186 70 8
0.734698 -1.09298 5.8965 8 12 10
-0.996097 0.547996 7.17792 172 174 174
1.51338 0.33071 6.38463 118 120 120
-0.0697739 -1.33052 6.01595 76 16 2
0.645394 -0.563043 6.06501 3 4 4
-1.33021 -1.027 6.85726 152 161 161
-0.385518 1.10595 7.14343 141 143 138
-0.507448 -0.302653 6.77352 174 175 176
-1.46102 -0.204522 6.32919 161 168 164
0.5505 0.461178 6.61539 90 94 97
-0.708414 1.49958 6.90416 110 10 3
0.449831 -0.0160059 6.51296 136 62 39
-0.2847 -1.5533 5.86385 113 82 32
0.621576 0.113979 6.8944 94 42 32
-0.69392 1.48106 6.57821 132 52 30
0.182315 -0.811416 6.46308 72 61 49
-0.155857 -1.64842 5.93029 23 42 2
0.266428 0.516038 6.8061 156 166 164
-0.152935 1.22536 7.36819 142 144 138
0.3429 -1.10854 6.21263 66 68 69
-1.46837 -0.228692 6.3046 160 167 164
-0.041181 -1.5042 6.09601 60 16 2
-1.67097 0.0266175 6.05054 142 31 2
-0.623061 -1.83549 6.25394 146 38 2
-1.90809 -0.39787 6.29962 150 152 151
-0.435078 -0.904571 6.12521 180 161 147
0.947322 1.04995 6.97181 112 111 104
-1.40181 -0.864779 6.67201 82 84 88
-2.16667 0.62356 5.92555 78 10 0
-1.53552 -0.199782 6.06507 18 21 16
0.350217 0.137253 6.47938 154 46 6
0.73421 0.489713 6.79884 152 152 157
-1.16154 -0.651456 6.72613 164 166 166
0.448193 0.317049 6.3741 164 59 8
0.965668 0.983172 6.81815 119 120 113
0.605618 -0.640149 5.98028 51 54 58
-0.100776 -1.66187 6.13444 80 55 6
-0.337394 -0.0673828 6.60987 181 183 179
1.01317 1.50492 6.72488 76 34 19
-0.510903 1.03298 6.92467 94 83 68
0.381025 -1.00401 6.20508 28 30 30
-0.64613 1.81303 6.55968 105 19 2
0.412045 -1.0687 5.87352 2 4 4
0.347801 -0.563028 6.02528 156 160 162
-0.594071 0.542363 6.9381 61 63 61
0.647557 1.53754 6.61638 164 75 38
-0.448482 -1.60653 6.04626 170 68 3
1.39924 -0.203222 5.71948 4 6 3
-1.99361 0.665189 6.04118 55 55 53
-1.76168 0.154343 5.87657 54 13 4
0.581873 0.422035 6.64688 54 56 58
1.623 0.236448 5.89375 106 108 106
-1.91601 0.00615816 6.14169 7 2 4
-0.237976 -1.45011 5.93859 170 64 10
3.99026 0.98339 8.36328 106 108 104
1.67936 0.507515 5.75319 104 104 103
-0.194203 -1.52048 5.98347 140 40 7
-2.12681 0.202132 6.11722 10 10 8
-0.549766 -0.62789 6.63342 164 166 166
0.431263 -1.06786 5.82802 8 9 10
-0.665764 1.65983 6.62809 150 56 18
-0.166104 -1.76525 5.93067 125 32 1
0.699725 1.66084 6.2819 140 43 6
-0.763676 1.07444 6.94666 160 156 151
-2.14235 0.860099 5.95645 124 126 122
-2.24092 0.859167 6.39228 142 108 94
-0.498465 -1.10375 6.22922 180 142 134
1.61611 -1.0094 5.92964 142 144 146
4.78626 0.745308 9.32847 58 60 58
0.0142894 -0.781549 6.36206 125 124 111
-0.98552 0.179476 6.76375 166 169 169
1.89964 1.29598 8.06042 120 121 115
-1.62845 0.263344 6.44817 158 160 160
-2.26538 0.552209 5.92058 56 20 15
-0.80439 2.0422 6.54583 151 126 124
-2.05535 1.02971 8.90198 148 148 147
0.768868 0.267712 6.50335 153 157 159
-0.494177 -1.81016 6.10722 164 77 27
0.359109 0.346752 6.73521 162 61 10
1.48104 -2.70525 9.15881 150 152 155
-3.71849 1.42788 9.53879 78 72 60
-1.48197 -0.983721 6.56766 160 162 164
4.6848 -2.55095 8.80606 140 143 146
4.59404 0.595152 9.86573 89 89 89
3.01652 -2.43282 9.14297 142 143 146
4.30343 0.954706 8.27986 100 102 96
3.49467 -1.72928 9.29483 134 136 139
-1.27117 -3.0284 9.21192 159 162 164
2.63717 -2.73552 9.27741 142 145 148
-0.668936 -0.373848 6.43333 163 166 167
2.31258 -2.10117 9.18919 148 150 153
6.08387 0.673989 10.1962 88 92 95
0.963981 -0.245826 5.25537 10 12 10
0.208685 1.02921 9.46363 146 146 141
-0.159166 -1.47495 6.06362 154 46 9
1.80269 0.768179 7.74851 114 116 111
4.44666 -3.15725 8.74424 146 148 149
4.59136 0.662614 9.34287 70 71 72
3.55683 -3.07556 8.8733 145 148 149
-1.73761 0.395183 6.04262 157 159 158
4.07963 0.606452 9.65288 96 96 92
-4.71908 1.97265 12.084 83 80 68
-5.19182 1.69554 11.3976 64 62 50
1.4838 -2.79096 9.05197 152 155 158
4.45613 0.104396 9.82953 83 85 83
3.43501 -2.17301 7.77422 143 144 147
3.36775 -3.09191 8.83802 144 144 146
2.78648 0.79288 11.0026 135 136 137
-0.0359858 0.298429 6.5254 161 165 166
3.64753 -3.72577 8.72606 142 144 144
-0.0356926 0.727317 6.3906 162 165 164
0.761565 -1.64675 6.52655 158 160 162
1.68762 -0.27928 7.29658 10 12 10
4.01173 -0.11624 9.52752 90 90 88
-4.06997 1.33189 10.6679 89 86 82
-2.37856 -0.935598 4.66626 86 85 81
-2.43898 -2.70062 9.04811 132 133 134
4.01805 0.507845 9.57695 96 97 94
-2.21827 -1.61889 6.92737 132 134 134
2.05315 -2.87565 8.96161 152 154 156
3.69718 -4.11509 8.62594 142 143 144
-1.99383 -0.254862 2.69532 90 90 86
-2.45407 -1.69394 5.22123 82 82 79
-5.55063 2.33224 10.1387 112 113 110
3.69001 -3.44764 8.97516 148 150 150
5.37834 -1.06605 9.87293 112 115 118
4.23947 0.520708 10.0801 98 99 96
3.72215 -1.53515 9.31406 128 130 132
-0.859052 -1.76595 6.19792 160 162 164
5.01182 -2.54394 12.3768 136 138 141
-0.669535 2.46863 8.08162 142 132 123
-0.372436 -3.45827 8.59129 154 156 158
-2.59794 -3.06617 9.53508 126 128 128
1.16303 -2.90983 6.40858 152 152 156
2.12069 -4.22895 8.99919 150 151 154
-2.67592 1.31571 6.76166 120 121 115
3.735 0.428789 9.50566 102 103 102
1.21378 -2.65922 9.03596 152 154 157
3.41671 -2.04429 9.2037 138 141 144
-1.5692 0.501822 9.01123 164 166 166
3.96217 -2.26912 9.10739 140 142 145
-2.78359 -1.54434 7.5769 92 92 88
3.51565 0.847865 9.34698 94 93 86
-2.02903 -2.9362 9.20593 149 150 151
6.28576 0.920262 10.3582 80 83 88
-2.66802 -2.94283 9.62314 122 124 124
4.07026 -2.31731 9.30225 140 142 145
-1.80556 -0.368182 2.00223 102 102 100
4.07716 -2.24556 9.33871 137 140 142
3.48631 -3.55616 8.73282 142 143 145
-0.0739901 -0.377047 6.43818 186 180 170
-0.0866012 -0.571175 6.56689 123 120 108
-0.912724 1.72282 6.73792 170 126 96
3.40014 -2.22223 9.0522 142 146 150
-0.354627 -0.126975 6.51964 178 181 180
-0.820294 -1.43553 6.45447 160 164 167
0.43354 0.228815 6.36044 112 40 18
0.903176 -0.444733 6.14565 3 5 4
-0.52575 -1.73708 5.98486 183 80 18
-0.0256162 0.0244896 6.5953 166 166 170
0.227866 -1.50882 6.21861 160 162 163
-0.601133 1.14632 6.9371 170 168 162
0.916348 -0.104391 6.52668 130 132 132
1.43371 -0.470609 5.82546 122 124 123
3.47359 -3.53754 8.97845 152 153 155
-0.736723 0.619815 6.89024 8 10 8
1.33542 -0.915199 5.83593 5 6 7
1.42667 -0.619629 5.9249 2 2 3
1.42148 -0.484836 5.96144 158 159 160
-1.2018 -0.795462 6.687 1 4 0
0.565208 -1.31738 6.10167 16 16 18
0.577596 -1.27744 6.18041 74 76 76
1.59103 0.119135 5.78513 135 136 137
0.38163 -0.819879 5.90295 25 28 29
-0.439433 -1.16098 6.13253 190 168 156
0.392794 1.29901 7.26309 121 120 112
-2.08324 0.665058 6.28614 42 46 42
-0.350055 -1.53819 5.98616 186 78 18
-0.698183 1.64428 6.512 170 74 29
0.592822 1.54033 6.802 174 90 50
0.913116 1.5754 6.50009 98 40 20
-0.587833 1.32218 7.13329 0 6 8
-0.019119 0.00847919 6.6011 166 167 171
-0.425082 -0.57142 6.47088 190 192 186
-0.49556 -0.860259 6.386 189 194 194
1.53113 -0.661694 5.84417 132 136 136
-0.0106559 -1.18372 6.12779 131 58 28
-0.264459 -0.877152 6.29952 146 143 132
-0.293032 -2.28163 6.33716 161 162 165
1.48301 -0.821995 5.77325 138 142 143
-3.20366 -2.90001 9.60267 96 96 94
-0.194956 -2.25003 5.78595 158 160 163
0.167923 -5.74034 17.4796 165 166 168
0.456356 0.605325 6.6662 14 18 16
-1.63128 -0.287058 6.41246 0 2 0
1.19951 -0.886246 5.87837 152 154 154
1.0377 -0.768251 6.10711 14 16 14
1.13196 -0.448006 6.19726 146 148 148
0.947934 -0.212356 6.08605 152 155 158
1.49785 -0.449937 5.69547 138 139 140
-1.79745 0.265659 6.32723 12 14 13
-1.97282 0.552922 6.22569 10 10 6
0.303141 0.514074 6.76743 168 173 172
0.438646 -0.615245 6.07836 40 43 43
1.07818 -0.853762 6.00498 153 155 154
-2.50284 0.668544 6.00266 1 2 0
-0.699867 0.998176 6.99459 157 148 139
-0.338942 -1.76024 5.97676 178 110 81
-0.706501 -0.202824 6.68502 162 164 166
-0.660594 0.207705 6.67036 184 82 16
0.336437 -1.33113 6.12287 162 164 164
0.0313306 -1.74164 6.06696 56 14 4
-0.551268 -0.872558 6.3393 188 194 191
-0.632549 -1.7941 6.28523 179 56 4
-0.0807508 -1.29712 6.17587 108 28 3
-0.951043 -1.72211 6.4639 162 164 166
-2.57922 0.759868 6.10276 88 88 79
-0.428189 -1.24422 6.35582 208 169 145
-0.392626 0.683988 7.19135 166 168 164
-0.194463 -0.704246 6.6197 172 174 168
0.892046 -1.09653 6.02993 150 152 150
0.289833 1.84777 6.77728 150 144 136
-0.32766 -0.545442 6.50215 190 190 182
-0.443151 -0.412332 6.52832 184 186 180
-0.494286 -0.459604 6.59667 191 192 190
0.555879 0.638988 6.75436 2 6 4
-1.59069 -0.716669 6.77789 155 157 156
0.138849 -0.832664 6.30992 90 77 58
-2.08726 0.302829 6.06414 88 34 18
0.558603 1.74387 6.59827 194 94 36
2.64778 0.754917 5.79242 119 120 115
1.66449 -1.58704 7.29357 156 158 160
-0.0368243 -2.3191 6.48153 156 164 162
0.771569 -0.232279 6.2179 157 161 162
-0.442762 -0.745404 6.42538 186 189 184
-0.936033 -0.183015 7.05704 166 168 167
-0.210827 -1.79224 5.8685 170 75 32
-1.00601 -0.253103 7.18044 170 171 173
-0.664959 -1.60804 6.20147 164 168 170
0.434503 1.84696 6.42164 150 143 136
3.25869 -0.0292729 5.14675 110 114 116
1.61952 -0.0141079 5.69947 121 123 122
0.870787 -0.105631 6.62521 156 160 161
1.43542 1.10466 7.03517 132 132 127
-0.369684 -0.234582 0.980346 156 158 160
-0.139975 -1.84647 5.79524 130 32 2
2.2752 -1.23483 6.83236 144 146 148
2.28133 -2.04594 6.07919 150 152 154
-0.453123 1.36732 7.03816 178 57 8
-1.8404 -0.101757 6.21245 26 29 30
-0.704992 1.68383 6.74421 166 69 28
6.64403 0.931891 10.0964 106 111 114
4.91473 -3.24148 8.44611 154 154 158
0.707797 1.06697 10.804 173 174 167
-3.42498 1.40028 9.82205 87 81 68
-3.15323 1.16619 9.81235 101 99 94
-3.61554 1.00178 7.09838 84 83 80
0.551162 -1.45898 6.06721 158 160 163
1.38294 -0.293877 5.32262 138 140 140
0.519168 -0.732336 5.70663 89 94 100
1.61086 -0.147427 5.69843 130 131 132
-0.652955 0.61686 7.04713 32 33 32
1.52194 -0.147052 5.79706 24 26 24
0.135241 -1.20083 6.12843 150 104 84
3.54115 -2.17535 8.49323 144 146 149
1.54981 -0.67179 5.78716 135 138 139
4.38321 -1.12765 9.00126 120 123 123
3.81035 -1.05905 8.48419 116 118 118
4.27098 -0.975476 8.51654 116 119 122
4.76604 -3.28266 8.00423 142 144 146
3.28969 -0.199469 8.06987 100 100 98
1.58869 0.296961 5.55621 118 120 118
1.46297 -0.435106 4.73904 128 131 134
3.84429 -0.317275 8.40565 110 112 110
4.10465 -0.660313 9.20529 108 110 110
7.6355 -0.897138 11.5656 124 125 129
3.8633 -2.25926 8.84065 140 143 146
6.8551 0.652782 11.3781 103 108 111
4.10045 -1.21538 8.90584 122 124 125
0.961722 -0.408476 3.067 123 126 127
5.86555 -1.36569 9.08497 140 142 146
