ply
format ascii 1.0
element vertex 1347
property float x
property float y
property float z
property uchar red
property uchar green
property uchar blue
end_header
-1.69163 -1.31969 17.297 150 106 90
6.39029 -3.77755 17.7778 159 154 104
-1.74957 0.0636533 17.9628 202 158 134
6.58884 -1.20734 15.6552 175 114 81
-0.554819 -2.23504 17.4763 60 26 16
0.850843 2.39228 14.4209 144 78 76
8.5783 -2.11765 15.768 149 86 52
-6.55867 -2.98477 16.1031 80 43 26
-7.715 1.69718 12.9055 124 15 18
-7.13232 1.17228 13.2017 33 29 44
6.42579 0.46898 16.55 153 128 116
8.54749 -2.88677 28.5902 156 148 122
-0.640424 1.77868 18.2745 109 68 42
-6.55906 1.26347 18.1195 138 90 67
-6.35996 -2.90159 15.879 72 36 21
5.06805 0.657277 19.3815 131 120 92
-2.02743 -0.840812 16.2705 146 100 84
-7.46029 1.48333 18.8877 148 118 99
-6.4747 0.285734 13.3897 153 108 50
1.201 3.03996 15.931 151 31 28
0.678875 3.28006 15.499 64 28 25
9.4697 0.621223 17.1023 104 74 40
4.45533 -3.14491 25.9218 81 83 44
-6.52329 1.28802 13.9855 164 142 128
5.97039 -5.14187 14.4954 113 58 34
-7.13953 1.4865 13.4851 100 32 33
-7.63905 2.79588 13.9499 127 16 16
7.9323 -3.26637 14.025 168 146 138
-4.13861 -0.852531 15.4997 176 114 87
5.75918 2.06985 17.8052 162 129 118
-7.0731 1.5182 13.4634 121 18 22
6.95441 -0.353405 19.7023 102 68 48
0.940771 1.03892 14.0588 131 26 18
-5.90768 1.11646 17.6332 171 122 100
0.891094 1.03932 14.1888 128 24 17
-6.36062 -4.27031 16.0401 63 33 16
5.6303 2.03935 17.3522 157 125 113
8.87968 0.0864746 16.5784 33 20 12
-7.51659 2.3881 14.2696 153 131 115
-0.475112 -2.60407 17.816 142 92 70
8.82991 2.01736 16.9342 182 149 114
-6.89388 -0.293204 12.7714 119 14 12
2.21898 1.83768 14.6758 161 28 28
-7.8762 0.91956 12.7281 96 5 4
-7.53109 2.17835 13.7439 124 16 11
-5.76083 -4.10416 15.6232 68 40 20
-7.28692 1.80677 13.3895 98 38 43
-7.24681 1.71398 13.2414 108 30 34
-7.9103 0.280691 12.8449 113 8 10
-6.34737 -2.78169 16.3297 62 26 12
8.92282 0.906363 17.4717 100 58 30
-6.60465 0.155233 13.4506 148 88 40
-0.0581774 -0.14135 19.162 150 114 87
-5.2294 1.65447 16.8856 122 72 51
5.68518 -1.63209 17.5077 104 59 35
-6.9349 1.2183 18.1595 115 72 44
-1.73288 -5.07155 16.9698 52 28 14
6.24082 1.59744 16.7395 185 162 154
1.08256 1.7457 14.5868 92 88 70
-1.936 -3.61229 17.6246 154 93 68
-7.2462 0.955178 12.9475 22 18 32
7.2626 -4.67806 14.0315 110 18 13
-3.7415 -2.45061 19.0105 85 52 16
-6.56789 0.306315 13.2703 120 19 16
1.29921 1.37829 14.2375 144 26 22
7.00037 2.52253 16.5109 128 88 70
-6.07005 0.969575 17.4912 178 132 108
-7.90828 1.66412 13.3179 122 14 14
-1.19845 -1.98229 17.3609 132 92 74
-2.00358 -3.10919 17.5349 172 122 92
-1.49859 -5.49904 17.4472 148 143 92
5.24569 -6.26486 27.0087 125 123 77
-7.0755 -1.43048 12.4404 162 150 124
7.28808 -4.05373 13.7247 72 57 55
7.88896 -5.94053 14.9003 19 12 12
-7.59176 2.67243 14.6114 150 128 114
-0.38762 1.66885 15.4682 158 132 119
-7.2934 1.14468 13.3094 56 48 58
-2.9984 -1.42956 15.096 155 104 80
-3.16228 -1.39313 16.6253 140 92 68
-7.7256 3.44156 14.1474 135 13 14
-2.32498 -4.5314 17.27 58 22 10
-2.17362 -4.36932 17.0314 162 100 77
-2.02753 -5.2722 17.6819 60 40 18
-6.81672 2.03705 14.5649 158 138 120
6.25857 -3.33976 17.1768 94 39 16
-7.18148 1.88106 13.6716 110 22 24
5.59022 -6.20794 16.727 130 104 72
8.12421 -0.930155 15.7851 165 128 110
5.47973 -3.66544 15.0853 102 62 24
-8.27664 1.19456 12.7293 148 98 38
-7.37833 1.40722 13.1199 84 68 70
-0.899263 -4.12707 17.491 83 50 33
-4.2207 -2.32537 17.8379 92 48 28
6.21843 0.289092 17.2679 144 122 106
6.38966 -4.21995 13.514 121 70 44
-7.52818 2.19977 13.8654 118 20 8
8.18127 -1.64733 15.5286 176 110 80
-8.35033 1.9713 13.776 150 44 37
-5.73503 -3.97303 15.8529 40 20 14
-6.59536 0.309622 13.444 119 33 14
-7.73285 -0.483255 12.3698 140 12 13
-0.430156 1.0454 18.4634 102 56 38
3.18463 2.89339 15.1497 164 146 135
-6.62991 1.58832 13.9932 124 18 16
-7.95138 0.769783 12.4326 158 100 38
6.11228 -5.22985 14.7832 120 57 37
6.73162 0.558518 16.742 160 133 120
5.62863 1.95701 18.0965 171 142 128
5.55988 0.340242 17.2936 108 68 42
6.59177 -3.54042 13.681 162 138 128
-5.11509 -2.98245 16.1495 133 80 60
-4.59542 2.22698 17.3784 144 114 104
5.31281 -0.480903 18.0218 40 20 4
8.55732 -0.30401 16.1292 184 156 133
5.45779 -0.613597 18.1957 20 14 9
-7.11751 -0.34993 14.133 162 146 128
-7.69028 2.94992 14.7764 144 114 98
0.561234 2.0769 14.5033 134 120 114
5.98965 -2.84056 16.5268 101 48 24
7.27429 -4.02603 13.4314 120 100 92
-3.40174 -0.344523 19.3974 55 17 10
6.33299 -3.86247 13.8266 169 142 132
6.92044 -2.74884 18.0776 157 154 102
-6.62672 1.79707 14.0926 124 20 15
-7.47152 3.93222 13.9825 130 18 16
5.64238 1.35666 17.357 97 68 70
7.02734 -3.64705 13.6038 103 82 68
8.77927 0.370521 16.5084 143 124 106
7.75824 -2.35134 15.2427 164 108 88
7.08169 -0.275628 16.0323 182 154 134
-6.43777 0.812805 14.1442 163 143 126
2.90932 1.80377 15.2761 84 58 48
-6.93619 -0.309949 12.3322 152 137 138
-2.56044 0.636556 18.2124 195 148 124
7.6156 -1.04403 19.8826 52 64 34
7.75024 -0.675826 15.8495 82 39 20
1.47376 2.15914 14.3361 140 122 116
7.72371 -1.38248 15.5842 133 90 74
8.25401 -1.49186 21.0614 162 151 130
-6.43438 0.717256 13.6919 164 144 127
-7.78037 -0.615475 11.9062 153 24 26
-4.13306 0.864707 17.6249 160 118 108
-6.58477 -0.822701 15.2049 160 146 124
-2.50714 -1.43269 15.8409 82 38 18
6.06362 -3.11569 17.6833 158 152 100
-2.62954 -0.932958 15.7145 166 110 90
7.71145 -1.74647 15.4462 134 84 62
-7.76494 2.88188 15.1704 89 18 12
-0.0643441 1.78151 14.9668 116 91 80
-2.55029 -0.969938 15.9138 172 115 100
0.134661 -4.00199 19.0944 143 140 90
5.37247 -3.94667 14.2287 158 132 119
7.05911 -3.81834 13.3217 87 69 63
-6.22904 -1.04243 17.2351 42 12 6
2.67534 1.70419 15.3078 152 136 118
5.48543 -0.311237 18.3909 38 21 3
-7.76807 2.91047 14.5642 112 11 12
-7.92419 -0.167939 12.4378 150 26 28
6.82862 -0.35024 16.4752 159 122 98
4.86033 -0.748772 16.8962 91 63 28
6.34451 -0.832021 18.399 91 66 36
7.06879 -2.89851 15.7666 160 129 114
-2.91758 -0.921001 15.6746 96 48 28
-5.15997 -3.51798 18.2713 148 144 91
7.66807 -2.19636 15.4456 94 35 14
2.97496 2.01456 15.5719 92 67 58
0.111182 1.94023 14.7948 156 33 26
5.61427 -2.23313 16.9005 163 132 114
5.19451 -3.52891 16.1178 156 154 100
7.19009 -0.454748 15.955 140 116 104
5.27324 -3.50649 15.8831 156 154 99
0.0993946 2.77269 15.1845 144 106 95
8.0705 -2.04976 15.9924 134 84 62
8.8938 0.00265607 17.3639 144 122 98
6.15828 -3.46327 14.4156 168 140 130
6.49831 -3.12045 14.1811 128 78 54
-2.19013 -1.26777 16.3485 153 100 82
5.2848 1.91528 18.4942 115 88 74
7.12701 -3.24401 13.7241 151 134 124
0.397445 -0.335468 2.65807 110 85 68
6.22607 1.19759 16.4396 156 124 112
5.351 -4.67232 16.9107 146 143 94
-0.926239 -5.07363 17.2456 58 46 12
5.53393 1.47775 17.5159 104 72 68
9.25594 0.850007 16.4134 160 142 126
-8.05453 0.945923 12.6199 152 101 36
-7.11754 0.758118 12.6241 86 72 76
-7.69802 -0.0158548 11.9957 147 32 30
-7.91883 1.0055 12.4962 150 96 32
2.30737 1.55184 14.5638 155 36 32
-2.14355 -5.11926 17.7347 49 24 9
-7.17692 0.842988 12.9338 32 18 24
-6.84742 3.0408 15.189 131 16 17
-7.4413 1.00526 12.9346 87 76 78
-5.8275 -0.992284 16.6584 60 22 14
8.15187 -1.57728 15.8145 167 100 70
5.66606 -3.16331 17.1502 156 154 100
-7.53038 3.08201 14.3938 110 12 12
5.98928 -3.32537 14.5282 154 112 88
7.65481 -3.38165 13.4781 156 138 130
1.71026 2.02206 14.078 108 90 84
6.64245 -2.08426 17.7822 54 76 56
6.90642 -4.48058 13.3916 110 14 8
6.40153 2.42592 17.3239 135 96 78
5.96267 -1.97099 17.4263 163 133 116
6.92155 -0.726141 17.1941 169 118 94
-8.22603 3.55733 14.6773 158 29 23
6.5727 -0.460466 16.0821 158 101 72
7.4976 -3.91968 13.399 160 139 132
8.66082 -2.03281 16.022 159 86 48
-7.31574 -1.31615 12.0859 15 19 52
9.02676 2.14323 17.085 177 146 118
6.31689 -6.79022 17.7871 156 152 96
7.33116 0.305415 16.4362 174 145 130
7.26555 -1.87734 15.5609 19 12 10
6.74989 -3.81158 13.4559 161 136 124
-3.24419 -0.88194 15.7421 116 70 46
-5.38927 -4.46417 17.2155 118 106 65
5.93485 2.16372 17.4583 178 147 134
6.9666 -3.11599 13.843 150 126 112
1.78685 2.0964 14.0773 119 104 100
-6.76673 0.822101 11.8072 28 21 32
0.997379 0.220391 13.3356 164 150 130
-7.99063 0.414476 12.4866 110 10 8
-6.95954 0.64336 13.1566 122 14 14
5.39065 -4.02528 15.7634 154 129 110
8.91571 0.90961 16.1065 168 150 142
0.333267 1.69861 14.5191 164 26 24
0.0811183 -3.65157 17.5772 141 139 88
7.6145 -3.256 13.8435 158 137 128
9.44033 2.07737 17.0283 166 150 136
0.405239 1.63938 14.7713 165 26 26
8.38363 1.60504 16.571 176 152 138
5.18143 -4.81893 14.4283 111 66 32
7.43035 -0.642164 16.2263 176 152 133
5.02335 1.38517 18.8997 100 79 56
8.27862 -1.5905 15.5195 166 106 67
-0.681592 1.93012 15.3978 160 133 120
-2.86154 -2.82381 19.4159 160 114 86
-6.85554 0.848984 13.4722 116 21 24
7.5239 -0.669003 16.3166 172 148 128
-7.97912 -0.0578111 12.5513 149 28 28
7.02064 -0.894885 19.4771 88 68 36
2.12864 3.21707 15.0289 162 136 131
8.17853 -0.278922 17.3653 102 52 22
5.20955 -5.27612 15.6995 96 66 30
7.38721 -1.62324 15.5155 10 8 12
-7.77276 0.861183 12.2853 152 88 38
5.12683 1.11009 19.2014 96 77 52
0.181985 1.63227 14.7377 135 33 24
8.42673 0.985842 21.5173 102 56 29
6.31478 -0.443343 15.7639 178 110 76
7.12633 -4.38064 13.4309 128 84 57
-5.25856 0.849836 14.572 184 139 114
7.23127 -6.18249 15.3627 152 132 98
7.03811 -1.52831 17.0131 165 131 118
-5.40297 -4.55457 16.2716 149 144 92
5.79052 -2.1115 20.9324 158 149 126
-1.74336 -0.464576 5.36373 138 92 76
-4.56216 -2.64214 17.5919 136 98 73
-6.534 -3.37774 15.5672 88 48 26
6.53871 -6.8958 18.1836 156 152 96
6.46262 -0.796139 15.5237 179 107 74
-6.99103 -3.79562 15.9419 148 143 95
-3.46721 -1.21494 15.255 130 79 56
6.52791 0.00147829 17.6662 127 105 88
-0.201361 1.68283 15.4018 162 137 122
-5.95565 0.0868683 14.3564 142 10 16
-6.11682 0.777085 16.4531 169 122 97
7.23998 -0.760271 15.9757 184 156 138
-4.22529 -2.64317 17.5947 130 90 63
6.59243 -0.202643 18.0925 132 106 88
0.101947 2.68997 15.727 148 116 102
-6.4388 -4.04371 15.5767 66 39 18
-4.32478 -0.0703032 16.4859 144 99 85
6.43795 -0.0571933 17.5753 132 107 90
-0.255485 -4.33063 18.2497 147 144 94
5.74391 -0.936411 17.4294 156 126 106
8.72765 -0.0312726 16.3468 179 154 140
5.71687 -1.85568 16.9833 158 129 114
0.0502204 -2.16629 17.7943 152 141 120
6.31183 -3.08126 17.3925 93 45 24
6.63167 1.29445 16.4287 169 147 140
6.57836 1.18661 16.4864 172 146 140
-1.41183 -3.43818 17.4167 130 82 60
5.81055 -4.2396 14.2714 105 58 32
-5.45416 -3.27958 15.8111 124 66 51
1.70432 1.73457 14.156 142 22 24
-2.49365 -3.53993 17.6936 152 146 98
7.54749 1.68712 16.3533 176 156 148
6.47147 0.176312 17.224 138 110 100
-5.88633 -3.8166 15.6436 30 10 4
-6.47048 -1.97663 16.8545 102 57 38
-6.91397 1.19059 13.4916 86 60 61
-4.86165 -3.65721 16.415 141 98 72
-5.03129 -1.24379 15.842 140 95 78
7.71796 -0.646413 16.0427 150 108 90
0.599234 0.168339 19.5741 148 136 116
-1.90821 -4.93084 17.0463 50 24 15
-4.92117 -1.18971 15.7538 140 95 79
8.43276 2.73483 17.4854 137 105 95
6.55944 -5.51609 14.732 129 90 62
-1.22011 -2.08245 16.9473 150 110 92
1.74228 -2.19606 17.96 138 129 108
-3.22473 0.75354 18.2919 87 36 24
8.19952 2.73182 16.8507 162 138 130
2.30387 3.36286 15.4928 160 137 131
-0.148474 -2.20343 17.6617 151 142 122
-6.51969 -1.31609 16.8479 42 12 4
5.6046 1.02215 17.3772 172 144 135
5.54809 1.76833 17.8805 164 138 129
-1.67559 1.12866 18.1694 190 142 120
-6.14671 -1.09619 16.4645 84 37 21
5.90144 -0.302139 18.3053 152 112 93
6.23921 2.24009 16.7364 198 174 168
-5.07424 -0.297151 17.0686 168 121 98
-0.414582 -2.11891 17.7151 124 80 60
5.21728 1.27884 17.7494 88 52 45
-4.53136 2.23396 16.9688 149 120 114
6.28152 0.371954 17.3839 148 123 113
7.04934 0.610015 17.7236 149 125 112
-4.95128 -2.30393 16.7231 160 117 100
-0.927099 1.6939 18.1911 126 80 56
2.21262 3.28657 15.316 157 132 127
-4.42426 1.51244 17.0038 98 48 30
2.344 2.4898 14.7638 154 129 119
8.96519 1.48548 16.4954 31 14 12
5.87778 -3.63798 14.4257 30 10 6
5.69723 -1.64024 17.5425 103 62 38
7.79229 -4.32347 13.1905 16 13 10
-6.21552 1.59059 17.7229 188 142 120
5.20274 0.690109 17.8483 166 141 126
6.88663 0.909724 16.0575 94 50 26
7.73809 -6.96527 14.8425 109 68 30
9.34675 0.357128 17.3705 144 126 107
5.28907 -4.1957 15.8759 154 128 112
5.3009 -4.0884 15.9377 118 86 58
-5.04737 -2.40806 16.582 160 113 92
1.22884 1.97442 14.4012 126 43 33
8.05158 -1.41804 15.7169 159 94 67
6.91447 -0.82737 16.0463 178 136 113
0.88334 3.10318 15.5199 54 20 20
-5.5943 -3.92521 15.7503 38 20 13
-5.50908 -3.2459 15.8394 140 82 66
8.40594 -1.80997 15.5225 180 112 82
-2.73954 -1.32618 15.6891 104 56 30
1.01 1.67255 14.1415 90 78 62
-1.19824 1.82832 17.8071 118 70 44
6.65507 2.49626 17.2097 144 97 76
-2.13524 -3.11556 17.6271 175 124 94
-2.83188 1.65281 18.2954 180 131 106
7.3375 -4.81541 13.9228 88 52 29
-6.33858 -1.4232 16.6847 38 12 6
-0.552076 1.63137 18.2913 116 80 57
5.91166 -6.37585 16.4575 156 152 101
1.65391 1.48693 14.1124 142 28 26
6.00028 2.15823 17.6203 180 154 142
-6.49009 -2.92137 16.6028 66 32 18
-3.91695 -1.77973 15.4625 103 60 36
7.4175 -1.51385 15.7193 14 13 16
-5.61109 -2.34489 16.4915 151 99 75
-5.54488 2.16335 17.2875 106 63 42
3.36137 -3.48949 28.3642 80 82 40
-2.86848 -1.31466 15.4457 138 88 66
6.5695 -0.360477 18.7239 90 59 38
-3.21389 0.874169 18.4078 88 36 22
-2.76654 0.0769625 18.121 174 122 96
2.14529 0.491364 16.0643 164 148 127
8.98799 -1.85933 15.6319 137 126 89
1.75113 2.26151 14.3531 32 17 9
6.75793 2.13255 16.6876 30 14 10
6.58355 -0.17895 16.7029 18 14 12
7.128 -1.46712 15.8588 11 9 9
6.44248 -1.85433 17.6335 10 7 4
-2.07605 -4.61589 17.2939 182 121 96
6.68288 -1.5512 18.7705 157 148 126
9.45582 -3.61647 14.349 86 46 39
7.20705 -3.45153 13.7834 84 68 60
8.72479 -0.331489 16.5576 186 157 135
6.77303 -2.77807 17.7976 151 149 95
6.29459 -3.20065 16.993 82 35 15
0.288665 3.3021 15.81 68 32 24
-3.30419 -0.345743 18.4565 58 19 10
0.549908 2.08964 14.586 134 118 113
7.04348 -2.54973 15.9683 158 128 116
8.39928 -0.413451 16.6657 120 93 76
-3.35635 -0.823732 15.5792 56 14 5
6.92528 -1.64732 17.5616 160 149 128
8.38337 -1.50026 16.0008 176 118 90
7.0117 -2.09873 15.5577 165 130 114
7.51488 -6.43573 14.9573 100 42 18
5.74881 -3.66155 14.8675 152 125 113
10.0514 -4.72201 14.7894 108 76 46
6.49799 -2.49717 17.277 59 14 8
-5.2542 -3.98718 16.8174 156 98 72
7.11414 -2.22455 16.5118 164 134 123
6.96734 -2.56573 16.4699 79 83 68
7.20501 -2.89819 16.117 164 135 124
7.31672 -6.41575 14.9733 150 146 102
6.27957 -0.799166 17.8057 96 74 44
5.29106 -5.4032 15.7222 150 132 116
1.97325 2.24045 14.518 126 105 104
-2.47244 -2.32292 17.4568 169 118 87
-1.38589 -5.14997 17.2202 52 30 12
7.28539 -6.41329 15.0047 152 148 100
-1.12353 -4.3243 17.1907 108 66 48
7.06795 -2.70144 16.0769 99 96 80
5.5836 -4.02807 14.707 162 134 122
7.78381 -5.68733 14.6447 12 8 8
0.14072 -2.17574 17.9043 156 146 121
-3.06886 -1.71937 16.5696 148 101 78
6.9916 -3.36227 17.3796 152 150 99
-3.06812 -1.7185 16.4732 150 102 79
5.13635 -4.78709 14.8267 147 124 105
5.69033 -0.173554 18.3252 148 120 101
8.32029 0.29727 16.6389 167 141 128
7.12444 -4.33804 13.4617 120 72 42
6.8713 -1.49156 15.9958 167 135 124
7.97753 -3.26643 14.056 176 156 150
6.64769 2.48441 18.3265 172 148 142
5.23381 -4.16746 15.5719 160 136 118
8.37675 -2.1363 15.8865 50 22 12
7.55234 -3.61902 13.8803 170 152 148
0.0724471 1.92914 14.4221 156 128 116
9.48149 -3.7588 14.1864 158 125 87
6.93904 -0.504936 16.154 186 154 129
7.09874 -2.35985 16.5477 162 132 120
8.36345 -3.92848 13.5766 164 141 135
7.15602 -3.33098 13.8239 159 140 132
7.26273 -4.42589 13.8091 120 72 42
-1.20131 -5.10907 16.976 56 34 14
-4.10114 -2.2117 17.6774 88 47 23
8.11947 -4.17641 13.1401 134 92 70
7.98311 -1.57996 15.7878 82 34 18
5.06697 -1.42526 18.2797 154 144 124
7.40169 -6.61116 14.9218 105 64 28
5.87161 -3.157 17.7667 142 141 91
8.97205 -3.65249 14.0654 150 134 123
9.70302 -4.28347 14.3863 150 140 113
7.64819 0.31667 16.5724 178 150 138
-6.0255 -0.647444 17.295 165 134 108
5.17952 -4.48652 15.4028 156 134 117
7.59383 -2.91713 15.9982 160 132 122
8.54606 -1.92632 15.4799 170 137 112
5.81016 -4.43097 14.1204 112 7 8
8.4089 -3.40949 13.9242 166 146 140
7.51225 -3.79705 13.6092 149 132 125
-2.94686 -2.9421 19.1978 122 82 49
5.78859 -2.26448 16.8257 130 93 74
-3.9062 -2.3228 18.0042 131 88 64
5.93933 -3.44362 14.6792 154 108 80
8.80491 -4.69061 14.0342 40 28 19
7.57556 -2.92771 15.9629 159 132 122
5.90599 -5.88906 16.6573 130 110 94
6.45052 -0.103585 17.0875 126 102 86
6.4624 -0.0411524 16.9414 126 101 88
7.13948 -3.36025 15.625 134 82 60
-2.62751 -2.15722 17.6654 156 106 74
-5.84615 -0.390262 16.0137 156 138 114
8.71868 -3.56951 13.857 105 105 93
6.72612 -1.26752 15.5466 157 94 66
-4.47259 -0.401606 16.6216 132 85 69
-3.62019 -0.70844 15.4051 167 114 99
6.90902 -5.93817 14.6784 156 144 104
6.00796 -2.34804 16.9432 116 63 40
-4.14033 -2.18817 17.2791 124 88 62
2.09067 1.2008 14.0782 140 28 22
7.43148 -3.82431 13.7372 158 140 134
-5.18923 -1.66624 16.6069 109 64 40
7.72709 0.946355 16.4409 98 50 28
8.73215 2.45761 16.5827 149 120 108
9.31216 -4.38354 13.8036 106 66 37
8.19921 -5.99369 13.7562 152 147 92
-6.73349 0.850535 17.6829 150 99 75
8.12317 2.7593 17.6531 134 99 84
-2.23127 -2.30433 17.1406 174 124 98
5.61063 0.281453 17.3881 90 52 27
10.3417 0.356945 17.6906 150 139 120
5.7092 0.216174 17.5745 84 41 20
-4.86009 -4.04337 16.6129 151 144 92
6.39426 -4.22581 13.5674 117 68 38
-2.34432 -4.88606 17.4337 89 73 37
6.11545 -1.606 18.2855 154 122 102
7.20501 -1.71139 15.4589 10 7 10
-4.36139 -0.212443 16.5576 136 90 76
7.1613 -4.72076 13.937 120 10 10
1.7862 0.489393 17.4047 163 148 126
-6.99804 1.74468 17.9092 152 126 109
-5.74112 2.1268 17.3218 102 56 30
9.56238 -6.07495 15.4157 152 149 97
-2.43499 -0.946592 16.7387 120 70 52
-5.88773 -2.98523 15.98 27 7 4
-1.81631 -1.2912 16.6923 108 64 46
5.85541 0.70306 16.1018 160 118 98
7.61129 -0.306854 16.8691 145 122 110
8.63715 -1.54958 15.5226 179 146 127
9.69652 -3.59143 14.4529 136 134 86
-3.50868 -0.629447 15.7427 134 90 78
8.28236 -0.0790583 16.8378 116 94 74
0.355227 1.24428 13.9784 130 23 17
-5.47314 -0.566492 16.5264 160 112 88
8.26408 -4.04661 13.1841 112 72 42
-4.39179 -1.27968 15.2599 99 57 26
7.26184 -6.33001 15.125 151 146 95
5.10169 -4.81413 16.0896 140 133 94
8.60678 -3.95666 13.499 116 74 51
1.56646 0.762076 15.4349 132 27 19
1.09089 1.89289 14.4752 98 72 57
6.33329 2.54821 17.7463 144 108 97
8.55041 -3.94142 13.5037 125 82 59
7.08788 -6.09256 14.939 146 132 92
-2.36913 -1.34063 16.1155 128 82 64
-7.30102 0.684434 18.6981 136 113 86
-5.27984 -0.396959 16.8675 180 132 105
-3.06641 0.16828 18.3747 135 83 66
1.30587 0.843644 14.8817 108 36 24
-6.49767 0.487526 13.8944 138 94 35
7.43878 -3.2655 13.989 156 136 130
5.4302 -5.34175 25.945 121 120 76
-1.99331 0.686823 18.2136 160 104 82
6.8409 2.53792 18.0754 169 136 127
9.86809 -5.47254 15.9647 146 120 98
-4.36156 -2.54316 16.8045 130 94 69
-2.32892 -3.78143 17.1196 165 100 72
6.99679 -3.30428 15.8937 145 112 93
-5.50805 -0.544117 16.7554 166 116 94
-3.14792 -3.12505 19.4651 130 121 70
6.86746 -4.33676 13.3744 163 120 97
-5.32588 -2.44792 16.5059 138 88 66
6.40486 2.68201 17.5748 172 148 140
7.33448 -0.672896 16.0744 178 152 136
3.77495 -5.75043 25.4247 136 134 85
5.36875 2.12499 18.071 156 132 124
-2.00511 2.03402 18.0542 164 130 120
5.75521 -2.8105 26.0635 136 128 106
6.70068 -6.45799 17.1753 152 145 96
9.02212 2.5221 17.3424 140 111 98
6.97129 -5.87404 15.6299 120 78 52
-3.5251 1.45945 17.6769 98 50 32
1.5012 1.4179 14.1556 146 30 30
9.27171 -3.04346 17.1959 128 77 56
6.65155 -5.50886 14.3843 116 70 44
-2.77272 0.121599 18.188 172 120 96
6.48306 -6.20968 16.1502 152 144 95
-1.56385 -1.25857 17.4849 140 94 78
5.84111 2.1237 17.5549 173 143 134
5.14037 -4.12899 16.0014 144 140 93
-2.92226 2.64166 22.7715 162 130 120
-4.09611 2.23049 16.6377 151 122 114
-7.02215 2.67529 14.428 126 10 14
0.670451 -3.02421 25.7923 149 138 114
6.62045 -6.06242 15.7093 152 145 98
0.023943 0.206682 18.737 162 122 99
6.74222 -5.73717 15.6785 116 70 44
-1.52528 -1.54972 17.3519 148 108 90
7.40136 1.95635 16.5101 174 154 148
-6.05171 1.03359 17.3698 167 121 96
1.21715 -3.2597 25.8161 102 100 54
-0.586076 0.887668 18.3404 118 77 56
6.45384 2.68936 18.0973 164 137 128
-3.48272 -0.0212557 18.5098 84 35 20
7.80522 -3.22492 13.9025 158 136 130
7.2949 -2.55256 15.4125 120 13 12
-6.89268 -0.275478 13.3124 165 147 128
-6.78003 -2.40808 16.7697 158 104 80
0.52369 0.909422 14.3164 20 10 9
6.39279 -1.25172 18.7271 78 43 20
2.17447 0.71075 15.6878 137 34 24
-4.54725 -1.51579 16.1341 88 45 22
-1.20539 -3.59879 17.4854 32 12 6
7.8098 -6.37095 14.8653 86 42 19
3.01302 1.78473 15.5993 103 87 72
0.371936 3.37563 15.5377 72 38 29
9.34592 0.0225385 17.1804 142 121 100
8.79902 0.318297 16.6237 138 118 99
5.21281 0.925178 17.5622 122 25 20
5.54757 -2.07757 16.8546 90 58 35
9.07809 0.441595 16.9883 140 118 102
2.55697 1.90606 15.2458 107 92 86
-2.2177 -1.39373 16.3052 150 96 82
-4.9855 -3.95643 18.0249 150 144 93
-6.84908 -1.41855 16.8598 110 68 44
8.44666 -0.251459 16.6252 114 90 67
7.62042 0.334104 16.4035 178 152 136
5.57478 -0.371538 18.2996 84 60 40
10.1725 -5.93066 15.8612 101 76 33
-6.04265 -0.146499 14.0153 145 94 40
-3.65738 -1.20232 15.3537 126 72 48
2.76609 2.1056 15.4155 147 129 116
7.57933 -5.81739 14.6517 122 78 48
-4.26207 -1.87668 15.9505 141 102 82
8.52574 -4.08367 13.3684 120 80 59
5.07131 -4.89782 15.965 141 136 91
8.78205 -5.13026 14.5241 109 78 51
10.0517 -1.09506 17.1783 150 140 118
7.17247 -4.60974 13.8574 114 12 9
7.21377 0.900642 16.0573 130 84 64
-5.88684 -0.679424 17.1015 160 124 100
-1.63369 -4.16107 16.8602 168 96 71
1.05979 3.42679 15.8504 56 24 22
14.9049 -3.2756 26.8826 138 136 88
6.28358 -5.30896 15.2493 124 16 12
7.65688 -3.93443 13.3751 169 148 142
7.57446 0.420575 15.5274 152 120 108
9.43674 2.40707 17.767 134 108 96
9.24723 2.29183 17.4386 122 93 80
6.32161 0.80342 16.3671 142 96 73
-6.01655 0.470057 17.5593 163 115 92
-7.42185 1.48546 18.5636 154 126 112
0.54821 2.65937 14.7624 100 38 38
6.81151 2.47687 15.9088 139 103 90
-6.69251 -4.18991 15.8422 150 143 92
5.84002 2.52414 17.7267 170 146 140
-1.27301 -2.17943 17.2521 146 108 89
-4.38444 -2.73695 18.1388 128 88 58
8.83603 1.0655 16.7705 170 150 144
-6.87744 1.28573 13.3255 97 46 49
10.0232 -4.31184 14.7429 135 132 83
14.3193 -2.02087 24.227 148 138 115
7.75154 -5.79447 14.8281 12 8 9
8.5851 -0.319121 16.165 184 157 135
5.19647 1.24263 17.2577 102 36 34
-5.43413 -4.25556 17.2925 28 16 8
7.99611 -3.73166 13.6739 177 156 149
-5.78931 -4.33722 16.3774 52 32 16
6.56951 -1.6621 18.1186 160 148 129
9.2865 0.186701 16.8197 88 69 54
-3.11633 -2.33608 18.187 71 28 10
-6.96758 -1.16158 18.9658 44 12 7
-3.83766 -2.90452 19.808 158 144 122
-1.94128 -5.67205 26.4674 42 20 10
0.121072 1.39976 14.5671 156 122 115
0.0801619 1.4758 14.0388 144 118 108
-7.42138 -2.60969 17.0962 160 148 125
-4.00605 -1.00495 21.9992 166 110 94
-3.4088 -2.4726 19.031 62 25 14
7.5099 -3.4722 13.7813 180 164 160
0.193418 0.692217 16.09 136 30 21
8.93011 1.20369 16.5063 171 154 147
8.56727 -3.50631 13.9153 94 106 91
6.52245 1.11768 16.3465 188 164 158
0.0819117 -1.95037 19.6806 153 142 119
9.86262 0.374404 18.8453 142 122 104
10.3673 -5.51487 15.5225 152 149 94
5.76144 -4.65087 14.4386 114 10 6
-2.81984 -2.12021 17.4472 70 26 12
5.21202 -0.544224 18.7842 125 78 49
-1.82825 -3.3929 18.833 158 107 82
7.84902 -6.9417 14.9243 110 70 34
0.11688 -4.18914 20.0699 144 141 90
2.63152 1.65968 15.5027 151 134 118
0.54677 -1.85179 19.4767 146 136 112
5.50467 -0.275628 18.488 52 34 20
7.62243 -2.18043 15.3814 94 34 16
9.15652 -3.37987 14.1906 146 132 111
7.56517 -0.5871 16.1876 126 101 88
7.97357 -4.18582 13.0665 111 74 44
6.66791 -3.43635 12.3544 148 125 117
0.929386 0.72184 18.0387 106 44 20
9.83883 -4.39488 14.6446 150 140 113
6.21155 -1.74005 17.2819 100 71 48
5.7046 -3.59085 14.3672 158 126 118
-3.28936 -0.689356 15.2117 128 84 68
-4.32276 -2.42099 18.3832 86 41 20
-2.32859 -4.16754 17.3964 172 110 82
7.3689 -5.81504 14.565 130 10 12
9.06918 -3.24866 14.1547 115 83 52
-5.30563 -3.96103 16.9247 158 100 79
9.65353 -4.66738 14.9473 108 73 41
1.68299 1.77668 14.0972 124 22 20
-6.03804 -0.780989 14.813 161 144 124
-2.49001 -3.12068 18.0739 113 88 50
-6.90895 -3.18333 16.4384 78 43 24
8.97138 -3.5987 14.0858 158 139 130
-2.54524 -4.79772 17.6386 144 141 91
0.134376 1.575 14.3473 140 112 104
8.32507 -4.17439 13.0836 15 13 8
-0.353425 1.23486 18.1558 100 54 32
5.5041 -4.76265 14.5025 136 114 90
7.45325 -0.380744 16.2097 138 114 100
9.49989 -4.41177 14.3795 111 76 46
-3.63247 2.06963 13.9319 158 131 121
-12.358 5.1201 24.4603 120 12 13
-0.832565 -4.43684 17.6761 32 15 6
1.60281 2.18863 14.3957 127 110 106
1.98488 0.247774 16.0275 162 148 126
6.75815 1.95851 16.5453 126 58 56
2.16184 1.24314 14.0636 142 28 26
-4.82894 -0.557182 15.7082 117 70 45
6.12338 -2.74371 17.2302 122 61 34
-6.98955 1.53453 17.896 94 64 36
7.49442 -4.35326 13.2084 110 78 60
-8.91738 0.616905 23.2005 164 128 102
-4.87461 -1.8235 17.2115 100 55 31
10.4859 -5.12077 15.2112 150 146 94
9.91738 -3.83386 14.6871 136 135 86
7.81696 2.5164 15.9719 142 110 98
7.62417 -5.51149 14.5103 12 9 8
5.26903 0.0605991 17.094 89 58 30
0.199204 1.27029 14.8168 130 25 18
-2.07147 -4.09071 16.8253 176 110 85
-3.29482 0.764539 17.9225 90 41 27
2.72568 0.71823 16.2003 162 148 128
0.633251 0.354037 19.6662 132 102 68
8.85381 -3.03039 14.4866 146 144 94
8.82456 -3.05531 14.4953 148 144 98
9.14038 -2.44783 17.6404 74 50 49
7.77847 -3.64891 13.8448 166 144 137
6.55538 3.34171 18.5755 178 158 152
-0.330278 0.990778 18.4179 113 64 42
-2.8702 -4.28683 19.3323 160 102 68
0.230116 1.38535 14.9328 138 23 18
5.37289 1.28907 17.5778 102 58 56
7.71404 -3.67117 13.7354 169 148 141
-4.60427 1.68635 14.8162 120 73 50
2.10753 1.97279 14.5188 160 26 28
6.62518 -1.28613 18.3714 90 68 32
5.21944 -4.58295 14.6358 152 129 114
8.78572 -4.9699 14.5509 30 25 17
-0.119854 1.4936 15.5657 112 77 56
-7.0281 1.6441 14.4039 104 40 40
-5.41273 -2.38413 16.7185 139 89 66
-6.65385 1.81976 14.5212 160 136 122
-1.04103 -0.6378 18.6116 150 111 92
0.0685856 1.79409 13.6617 156 130 116
0.906704 0.729639 15.5666 126 32 22
-7.39136 3.91727 14.4959 130 15 17
-5.26038 1.0368 15.5167 184 138 114
-6.5998 3.55577 14.4271 128 13 14
-1.70628 -6.31336 18.4844 148 142 90
8.969 0.733358 16.3169 101 68 38
-1.51414 -5.54998 17.345 148 144 94
6.45277 -3.67657 17.3318 112 41 17
7.74968 -2.95499 15.9172 160 141 132
-6.23181 -0.28318 14.6982 125 14 12
1.22551 0.520244 14.9814 77 40 21
1.66872 2.21413 14.7999 113 96 89
6.31647 -3.83212 17.4255 158 150 100
7.53114 -3.79822 17.7655 143 104 78
-6.66673 2.12552 14.444 156 136 121
5.12996 -5.06504 16.0715 98 68 36
-3.68308 -1.23592 15.9382 126 76 52
6.33065 -3.52648 14.2818 170 142 134
5.08812 -5.0118 15.2327 96 66 32
-4.44739 -2.18087 16.2045 140 98 79
-2.09368 -3.29193 17.6843 127 80 44
6.46086 -3.34536 14.0391 168 144 132
8.19722 -2.74637 16.2234 64 30 21
-2.34454 -1.46468 16.7136 150 95 80
1.86958 2.73937 15.0177 77 34 28
5.80009 -5.72742 16.4021 122 100 84
5.34049 -3.92419 15.8872 120 96 59
8.01782 -3.27096 15.347 128 82 66
7.76634 -4.38978 13.6969 136 92 69
-4.12869 1.75126 17.2219 80 33 20
5.00712 2.56522 17.59 166 146 137
-6.50236 -3.12204 15.7099 86 48 30
-5.61286 -4.07552 15.8563 62 36 24
-5.51567 -4.11 15.8657 44 24 14
6.43378 2.54129 16.1051 164 142 136
-2.50409 1.9292 18.2941 165 124 106
-4.31399 -2.768 17.8708 131 92 62
-4.97557 1.66677 17.1704 94 46 25
-6.61557 -2.97575 16.1993 76 43 24
-7.07749 1.63041 13.5893 110 26 26
7.48876 -5.7089 14.6701 122 14 14
5.68525 -0.107026 17.0865 136 112 96
6.58151 2.74082 18.9008 163 134 125
-4.62512 -3.14648 17.7708 136 104 69
-5.44957 -4.18564 15.7473 58 37 20
-6.30927 -2.8464 15.7641 70 34 20
7.10278 2.21897 16.557 26 18 16
6.80909 2.14918 16.7509 30 10 8
6.80468 1.92707 16.7063 100 33 32
8.54926 1.69296 16.4545 43 22 9
6.57654 1.91051 16.7219 93 36 40
8.23034 -0.309967 16.5984 28 16 12
8.63858 1.5239 16.4086 182 151 135
-1.62198 -4.50594 17.0207 160 104 82
8.72604 0.284771 16.4983 142 122 104
-7.03389 0.925733 13.1552 22 20 35
7.77949 -1.73066 15.5847 140 91 73
7.11249 -0.283421 16.0305 178 151 138
-6.64365 1.76925 14.0511 128 24 22
6.93603 2.30829 16.6954 157 134 128
6.95155 2.30236 16.7207 156 134 126
-8.0003 0.347752 12.5368 108 12 8
7.46832 -0.335299 16.6647 175 146 129
-6.85462 -0.0279787 13.5772 68 6 4
7.79727 -6.36073 14.8481 98 50 21
-6.96001 -2.19084 16.5268 156 145 125
7.66434 -1.2014 15.6752 126 100 103
7.8998 1.23098 16.2309 173 153 147
7.93338 -0.389952 16.2715 92 62 46
6.93897 0.858034 16.0963 76 32 14
7.74167 1.18237 16.1312 172 152 147
6.51608 -2.81902 17.4091 90 15 12
7.32769 0.00967924 16.3992 26 14 12
-7.48179 2.94442 14.5157 66 4 7
6.66386 2.16539 16.7986 148 122 118
-8.10139 0.885331 12.5932 158 109 52
7.63496 -0.592767 16.2441 88 44 22
7.39499 -0.824942 15.8376 174 146 131
7.54597 -1.3629 15.5923 14 10 14
7.38094 0.472102 16.2141 158 124 106
7.17591 1.29288 16.2399 164 144 137
7.3883 -2.25922 15.3824 169 84 58
5.70234 -2.30484 16.7685 138 110 99
6.21106 -0.012089 17.7498 130 110 92
6.69966 -0.367953 16.3118 160 112 90
7.4012 -6.62645 14.9029 102 64 25
7.28173 0.771802 16.3237 94 50 28
-8.35735 1.42703 13.1681 158 132 116
-2.09979 -4.27233 17.0195 179 119 95
-6.1531 -1.48926 16.6846 49 12 6
-1.63302 -3.23306 17.5255 168 116 93
-7.28689 0.981953 12.9835 22 18 36
7.28311 -3.0708 14.1965 121 74 54
7.46158 0.707033 16.3052 150 119 107
5.38288 -4.53062 14.458 96 53 26
5.75178 -4.40861 14.3598 119 74 55
7.51798 0.690908 16.3612 152 122 109
-1.50362 0.84149 17.3082 165 118 98
-4.40511 -0.620764 15.9201 160 104 88
8.10433 0.226119 16.567 160 135 120
8.64157 1.96152 16.5906 179 149 118
-8.46917 1.25181 12.586 160 138 122
-7.25146 0.775932 12.9108 86 70 76
8.39297 1.83366 16.682 176 154 147
8.06043 -1.75076 15.6996 102 34 17
7.36885 -0.8218 16.073 174 146 130
5.80776 -4.46096 14.0972 108 8 8
8.42138 -1.48424 15.9867 140 70 38
-4.90798 -0.902191 15.8029 87 42 25
8.08568 1.08958 16.1858 173 148 143
7.11451 0.666661 16.4219 140 106 92
-2.13225 -3.14171 17.6749 166 116 87
-6.90973 1.20158 13.4125 82 62 66
6.52965 1.09753 16.4877 156 133 126
8.30346 1.16986 16.1653 144 113 96
6.0155 -0.340079 17.8895 98 60 40
-4.73586 2.56175 17.4519 156 132 126
8.8333 2.32116 16.9216 132 104 86
8.21175 -1.56019 15.8595 154 89 64
7.04739 1.12522 16.154 114 70 48
-4.65215 -0.596066 15.8188 124 77 55
8.62625 2.29914 16.6533 136 110 93
-6.78281 -1.31981 16.8123 100 60 38
8.25422 2.42457 17.0207 168 150 143
6.88863 1.04661 16.2359 154 109 93
7.16299 -2.19646 16.7047 120 91 78
4.5975 -0.377156 19.0478 152 144 118
-3.62435 1.44563 17.3604 121 77 50
7.94827 0.0571507 16.7795 110 70 50
6.7689 0.684781 16.7319 117 86 73
-8.44717 0.686092 12.3444 155 101 32
8.24959 -1.70048 15.6299 166 101 76
-4.37322 1.28344 17.2249 154 107 91
8.53639 1.35254 16.3491 147 116 105
-1.88725 -4.12136 17 180 113 88
8.11613 -1.40036 15.7922 150 88 61
8.42922 1.69185 16.6003 176 153 144
8.49008 1.69146 16.7305 174 152 144
6.86599 -3.79077 13.6409 161 137 130
6.12908 -2.2951 17.1342 126 84 65
-6.90978 1.2438 13.4416 94 55 60
8.39956 0.52105 16.6356 114 81 66
7.37317 -1.60989 15.6292 12 8 10
-6.86077 1.65408 13.7124 90 60 62
-8.38132 0.5406 12.6038 154 102 34
6.92311 1.20293 16.4303 152 115 100
8.31384 2.13427 16.8302 166 145 139
8.05281 0.516204 16.6587 148 114 99
8.66617 0.493655 16.6176 138 118 102
7.94327 0.705234 16.2471 126 94 78
-3.61795 -1.66674 15.2017 154 105 78
-3.36748 0.326399 18.457 92 44 33
-8.37465 0.56707 12.6563 152 103 36
-1.44892 1.38158 17.9562 166 114 94
8.42214 0.664196 16.7164 142 114 102
8.22376 -0.338081 16.9773 124 79 58
6.85174 0.741014 16.3732 96 61 41
6.49946 0.943259 16.9089 132 84 64
-5.54519 -4.1173 15.8366 54 32 18
7.86631 0.982621 16.3895 88 46 27
7.53073 0.635035 15.9984 150 120 108
9.08548 2.34471 17.1427 152 128 112
-2.36434 1.60077 18.0266 125 73 46
-7.18265 3.06382 14.4554 130 12 14
7.3687 3.12784 16.9878 160 140 134
6.76998 1.13453 16.5006 150 114 102
8.10135 0.781304 16.7993 136 104 92
0.827386 2.66628 16.5664 154 22 24
-1.85219 -0.661349 17.8204 180 132 112
6.39428 -3.41218 17.3783 116 54 29
-6.73899 -2.39297 16.6812 170 120 98
12.1184 -4.07482 24.6134 98 34 18
-5.01885 1.65988 17.278 101 54 33
7.13293 0.357631 15.9773 176 146 128
-1.73216 -4.59982 17.0163 174 113 92
7.39674 -5.89588 14.9544 136 8 8
5.90373 -4.80599 14.7004 115 7 8
-6.96044 -1.90879 16.5765 101 72 44
8.44791 0.932772 16.4798 97 58 32
5.32142 -4.20263 14.9197 92 87 70
-6.55329 -1.51989 16.6846 164 114 94
6.90605 -5.91112 15.0979 156 136 108
1.64855 0.635632 15.0375 134 32 21
-7.89744 -1.02873 12.4263 140 36 23
-7.01004 1.22142 13.3538 30 25 40
-6.62677 -1.83549 16.658 86 40 21
8.16915 0.733093 16.567 137 102 83
-6.47476 0.89787 17.8935 165 115 92
-6.80564 3.65305 14.4496 136 16 17
6.49137 -6.07545 15.8769 160 154 105
-5.30451 -3.25589 15.6825 176 108 86
-7.36447 1.6196 13.3744 126 18 18
-6.24268 2.25341 17.5922 150 108 88
-6.73531 -3.13756 15.9164 76 40 22
7.88941 2.7871 16.8901 166 142 134
-0.19778 -3.89285 17.8509 144 142 92
1.53529 3.1688 15.4857 136 98 95
-6.97913 1.14793 13.3904 38 32 45
8.47139 1.86166 20.4526 166 143 138
-5.40705 1.50314 16.6736 128 80 62
-4.28593 2.40376 17.7478 156 128 120
6.80082 -2.00583 17.7551 56 51 26
0.991776 0.619618 14.7441 118 34 21
7.12127 2.75309 17.2987 154 126 120
-6.02051 -0.304418 14.1513 127 12 12
-7.1422 -1.12945 12.6194 117 22 16
-6.40697 1.36142 12.0785 104 32 34
-7.25123 1.16277 13.1301 97 92 104
-7.68271 -3.67552 16.6288 148 144 92
6.74314 -5.95769 15.7852 158 141 110
-7.22907 1.52582 13.646 104 32 34
7.05905 -4.11359 13.3412 191 176 174
6.19619 -3.84224 13.719 160 136 128
0.294475 3.14426 15.6781 64 22 16
7.1237 2.01171 16.4202 176 137 94
5.79339 -1.86985 17.3204 161 132 116
-7.829 2.23931 13.3151 130 18 20
6.66157 -3.06289 17.3126 162 160 107
7.88001 1.32675 16.1156 181 160 155
6.69815 -0.468178 16.3154 156 102 75
7.67162 -0.172385 16.334 112 64 40
7.02717 -2.88466 15.7074 152 124 114
-2.95663 -3.0021 19.3933 118 76 48
0.234412 2.92572 16.5079 140 108 93
1.86771 2.76228 14.9528 95 38 30
-0.952333 -2.84766 17.4665 78 34 22
-6.71728 0.595977 13.3779 124 14 16
-6.90378 2.79433 14.896 118 14 14
-4.74336 -1.69469 16.3718 112 68 46
-7.49792 -1.45415 12.0482 20 24 64
-1.73451 -1.62927 16.6102 178 136 120
-0.337027 -1.36198 16.7955 148 140 116
7.28071 2.0302 16.3901 167 136 128
7.17686 -2.20008 15.9801 120 88 76
1.90928 2.49002 14.6273 136 34 34
-5.45029 2.15206 17.4189 98 52 29
7.18512 -3.21227 13.8029 158 140 132
-5.19221 -2.99677 16.6886 128 75 58
5.51005 1.75108 19.606 92 68 42
-8.54937 0.546756 12.5167 164 139 114
6.86684 -6.01729 16.3606 152 136 110
4.95317 0.59111 19.2466 130 118 90
6.46883 1.54936 16.5395 170 146 140
6.88182 1.00729 16.6869 140 94 74
6.28069 0.462752 17.0541 119 88 72
-0.387256 1.12522 18.4444 103 58 37
3.26165 -5.4751 27.2228 127 124 80
5.61162 -4.04982 14.9157 144 118 108
1.2176 -2.20534 7.9192 142 140 91
7.27414 2.67598 17.9282 130 90 78
-5.21364 -2.03681 16.8083 146 104 80
0.59115 0.0943964 19.6162 146 134 113
6.43927 2.64386 17.6224 163 136 128
5.7043 2.03793 17.787 165 135 124
-7.14872 1.04365 12.712 71 66 78
-2.48641 1.17617 18.3127 184 134 112
5.98283 -2.2896 15.4495 74 48 34
-12.6459 -3.82385 24.9543 160 146 124
0.773755 3.13631 15.9342 125 45 42
5.5074 -0.276319 18.5064 54 32 16
6.92035 2.69763 18.7684 138 94 76
5.46653 -1.84931 17.771 161 148 129
-4.25435 -3.23899 20.3212 122 119 74
-7.66845 2.23969 13.399 120 18 13
6.04908 -5.18413 14.9837 116 66 40
7.19257 2.56117 16.4583 129 96 85
-4.77236 1.79327 17.1387 120 72 49
7.3677 -6.63986 14.848 104 68 28
9.42104 -3.29995 16.8369 146 143 98
6.51647 -3.38533 14.1829 164 139 132
-7.47507 1.07969 12.8662 90 60 59
7.14831 2.42539 16.6245 176 154 149
6.31849 1.12278 16.5294 140 94 77
-7.25428 -1.20763 12.5627 110 37 22
-7.23317 -1.20313 12.5788 110 39 21
7.14753 1.8083 16.5944 80 105 88
0.125117 -3.02841 17.4588 139 136 88
8.00372 -3.74914 15.1883 100 83 78
-6.43907 -1.26839 16.7852 44 12 4
-1.24367 -4.71345 18.0309 90 57 42
7.60244 -4.03885 13.0808 126 83 63
-8.38551 1.03974 12.461 142 88 27
-2.39776 -0.606459 18.0041 184 136 113
-1.89401 -4.03385 16.9342 180 110 84
-4.73306 -0.444388 16.6436 99 52 29
-1.63733 -4.11606 16.6072 175 102 79
8.00768 -6.64587 14.7921 113 91 48
0.930729 3.2787 15.4159 54 18 18
2.23048 2.24008 14.6752 157 30 27
9.58167 2.12056 17.2906 162 145 131
-7.47376 -1.4739 12.0703 20 24 63
-4.90849 -4.12668 17.2121 150 146 92
-3.64319 1.29174 17.1763 88 40 18
7.64979 -4.16078 13.1469 126 80 58
-2.53166 -3.80006 16.9206 153 142 93
-0.693423 -0.895844 18.3428 172 130 113
-7.09753 0.613619 12.7438 124 15 16
-3.55902 -0.415292 18.204 115 69 50
-3.98664 -1.73803 15.5634 110 66 40
-0.603397 -0.0885589 1.0541 122 97 92
-1.43686 -3.74285 17.112 143 86 64
-7.16168 1.61045 13.6868 108 28 32
-7.20507 -1.14047 12.6021 118 24 18
3.00361 1.60901 15.601 153 136 120
-0.990282 -3.65558 17.1653 30 12 6
-6.82848 -0.774324 13.0022 160 146 125
8.92247 0.0959244 16.6562 34 22 16
5.55314 -0.619246 18.4812 20 15 12
7.58421 -4.09135 13.4268 210 198 196
8.79384 0.0464703 16.6785 27 14 12
7.23828 -6.34245 14.0171 188 134 104
-0.133228 1.53703 15.6549 162 137 122
0.628937 1.18706 15.5057 68 19 14
-6.74047 -1.1893 17.1226 156 143 124
7.35883 -3.54507 13.6491 176 160 157
-3.45065 -2.50568 19.3433 56 20 6
7.19804 -2.47135 15.8248 121 18 12
7.03917 -2.87558 15.7074 163 134 122
-0.608063 -2.53679 17.2943 178 128 107
7.04583 0.27075 16.8305 94 54 26
8.7699 0.204482 16.2 145 125 108
5.92483 -1.26511 17.9134 168 136 112
6.31119 -0.660762 18.0743 108 83 57
-2.32665 -4.19721 17.4277 178 112 86
-6.33338 1.22183 18.6363 194 148 122
-3.41209 -0.852656 17.1393 106 61 38
-8.43533 1.06793 12.6015 136 84 30
-2.40984 -0.646112 17.9536 184 136 114
9.49835 -0.299474 17.3086 101 72 36
5.61318 -3.90064 15.4096 154 126 112
-2.24741 -4.81546 17.3416 54 24 12
6.57296 -0.447451 16.0392 158 106 77
-7.28621 1.92215 14.0012 118 18 21
6.11155 0.805258 16.7169 156 116 100
-3.25244 -1.70657 15.1506 106 72 36
-1.06602 -4.04511 17.2356 102 62 46
7.88519 -1.50976 15.6386 88 36 18
-4.00288 -2.35236 18.3133 132 88 66
7.9141 -1.10713 15.9561 98 72 70
1.43354 -0.0276694 13.8431 160 148 127
-6.79215 -0.385497 12.6132 121 16 15
5.41778 -5.13592 14.8501 158 140 117
5.57911 -1.68342 17.739 152 128 104
6.59715 -3.31625 14.1817 160 134 126
-6.54012 0.471699 13.558 144 98 41
8.95497 2.28469 16.8458 140 110 92
-7.3146 0.880002 12.7862 85 72 76
-7.46024 2.12725 14.373 124 16 18
-5.01568 -2.90146 17.0168 56 20 7
7.57613 -3.08563 14.248 124 82 60
7.33684 -3.70315 13.2025 162 142 136
8.67076 -1.7719 15.6394 176 146 128
6.07697 -2.59425 17.1402 126 56 34
7.51274 -3.09169 14.1655 115 78 60
2.242 3.24284 15.9577 154 130 121
4.69786 2.48881 16.7722 165 145 136
-6.91798 -0.681579 12.3978 122 13 15
-4.9133 -3.03852 16.9767 108 72 35
6.52388 -4.34746 13.6635 118 71 42
7.49741 -3.37558 23.9891 151 148 98
-1.85526 -0.613751 17.9259 190 143 120
5.80924 -4.13466 13.9802 106 58 30
6.54609 -1.33341 15.8354 158 98 62
-7.08711 1.42561 13.6118 94 52 54
7.37198 -1.65387 14.0053 168 98 68
7.49122 -3.44065 13.8868 194 176 172
5.44849 -5.24427 15.8267 94 59 24
7.45466 -3.5133 13.2702 170 150 144
6.85432 -6.56077 17.5439 158 154 98
7.51712 -6.92638 18.8449 157 151 100
-0.757764 1.76892 18.2051 110 66 40
6.01093 -7.60838 20.9657 153 150 98
-4.36717 -0.14352 17.119 148 108 98
-6.43184 -4.25552 16.0483 64 34 18
7.07896 -4.48505 12.9557 17 13 10
6.03609 -5.62422 14.3819 160 151 104
6.66313 -6.30978 17.4991 148 128 105
7.30868 -6.61695 17.4328 160 152 103
-1.56787 -5.39078 17.4461 138 130 84
2.16409 1.20722 14.4238 138 30 18
7.15204 -6.4716 16.9282 159 152 103
3.71813 -5.91182 26.3068 137 135 84
-5.30258 1.86545 17.4261 94 46 22
7.70625 -6.56517 17.8819 156 140 109
6.17751 -2.77168 17.2965 128 64 38
8.79124 -2.28717 15.459 141 138 94
10.0861 0.437534 17.7218 110 78 41
5.31534 -4.69272 14.9188 148 122 108
-8.42884 3.28565 14.6435 156 122 106
-6.55774 1.02989 13.7886 162 118 103
-6.81651 -0.684007 12.8259 152 121 103
7.00024 -5.11804 14.9207 126 8 9
-4.37664 0.739798 17.8004 154 108 92
-6.06778 -4.33079 15.2284 148 142 96
-6.67576 3.65869 14.2461 122 32 32
-1.14786 0.127765 17.144 174 132 117
-6.89107 -0.4405 12.2313 158 140 140
-6.21165 -3.53871 16.744 140 88 72
9.52232 -3.63476 14.5061 62 29 21
7.57371 -6.65105 14.714 216 167 142
7.56925 -6.61335 14.6319 218 168 143
-7.54946 3.9264 14.1442 131 13 14
-6.94814 -0.935109 12.5544 114 16 12
-0.287818 -2.81661 17.5935 25 10 2
-7.88648 2.20446 13.4436 121 18 20
-6.63812 1.75911 14.0171 122 17 18
5.43801 -2.38073 16.6708 170 138 118
-3.72228 -2.75897 19.2918 158 146 122
-7.50427 2.64481 14.1089 104 8 10
-6.48834 -1.33702 16.7816 48 18 8
1.52579 2.10984 14.4124 150 128 124
-1.56197 -3.93407 16.9677 164 97 75
9.77026 0.414503 17.5032 103 62 30
5.64937 -1.67157 17.4053 66 22 3
-2.68547 -0.96165 16.3338 164 112 94
-2.59733 0.97198 18.193 183 133 108
-6.88885 -0.985813 12.6451 114 18 10
-6.68972 -0.595054 13.9083 163 146 126
1.18736 0.672958 19.5508 150 136 115
1.2231 0.62501 19.4149 148 134 114
-6.86983 -1.00615 12.6641 118 22 13
9.28446 1.64545 16.7898 169 148 130
8.7378 -0.84617 16.3923 154 128 110
-6.09007 1.46104 17.5666 186 136 113
5.66723 0.857691 17.3076 180 150 142
7.40549 -3.40149 13.7875 76 62 56
8.17922 -3.26029 14.3552 172 150 146
8.39777 -2.06841 15.8785 156 85 53
-0.725619 -1.85259 18.0473 26 4 2
-4.29464 0.794024 18.0071 152 110 96
9.9389 -0.143825 17.9797 94 60 26
6.60259 1.61824 17.3147 238 218 212
-7.09147 2.40549 14.3211 155 98 34
8.03303 -6.2966 14.9091 148 146 94
8.86152 -3.92933 13.5941 115 70 42
8.9143 -3.70399 13.8241 158 138 130
-7.11771 1.09176 12.9677 34 29 39
9.64411 -2.77111 18.2227 88 70 69
-0.545915 -2.63057 18.3 154 100 75
8.70133 -1.95664 15.3057 168 140 119
9.20009 -3.41722 14.1359 146 124 106
8.91914 -3.17762 14.2079 104 62 33
8.32394 -2.71052 16.448 51 24 15
-6.54302 2.0808 14.274 156 134 119
-0.0469377 -2.55041 17.4923 90 70 32
8.82809 -3.4613 13.9484 100 103 90
9.14097 1.86705 16.8395 163 137 124
7.70897 -2.22852 15.537 94 36 17
1.31672 3.19879 15.8038 50 16 16
7.71882 -2.6523 15.8568 146 118 108
8.04343 -5.97586 14.7533 122 94 56
8.50059 -3.99469 13.9195 160 137 132
9.54019 -2.50631 17.7199 150 140 96
7.51025 -0.659912 16.1587 116 90 75
8.85804 0.314666 16.7622 136 114 95
5.75566 -0.116524 18.3554 147 120 101
5.3908 -5.82159 16.3807 150 134 115
-3.06068 -0.989993 15.6764 112 64 34
7.12268 1.00504 16.0215 114 66 40
6.20834 -3.43427 13.9114 170 142 134
5.56024 -0.412157 18.3627 50 28 16
-4.82638 0.115998 16.4913 147 100 80
0.916138 1.97883 14.5812 126 112 111
2.51215 1.69904 14.9324 149 130 116
6.68414 -2.58062 17.8009 53 19 8
8.71678 -3.39284 14.1095 96 98 80
5.48106 -2.07969 16.9511 122 94 78
9.55971 -1.24182 18.2004 150 138 118
7.75746 -6.19469 14.9606 104 58 32
5.31049 -4.51762 15.4417 160 135 122
9.62426 -3.99435 14.3334 98 93 68
8.54118 2.3436 16.7608 158 130 120
-0.673961 2.44068 16.2545 157 129 117
7.07285 -3.53605 13.7392 144 122 116
-1.87891 -4.027 16.9599 179 106 80
-7.80672 2.92811 14.1557 128 11 12
-6.58578 -0.155246 13.7735 138 94 29
-2.53714 -3.50902 17.6553 146 140 90
6.82874 -0.594852 17.4088 176 112 77
7.94098 -0.639528 15.6971 78 47 24
8.97898 -0.0717119 16.6375 137 118 94
9.01124 -3.25722 17.1707 36 18 12
9.4126 -4.32467 14.0958 104 69 36
-1.15071 -2.94756 17.2589 138 94 73
-7.96118 2.498 13.6028 163 130 101
5.24252 -4.02436 15.8868 104 82 42
-6.7293 -1.73127 12.3031 162 147 122
8.82777 -4.45288 14.0545 15 12 8
-1.34694 -1.18446 17.9495 152 114 98
9.53691 2.06713 17.7567 150 126 111
-2.17985 -4.90589 17.3519 53 24 13
-7.50262 3.16551 14.3392 124 14 14
9.9221 0.604977 17.1253 150 136 115
-1.93608 -3.79062 18.0815 156 92 72
-4.9249 -0.95767 15.6223 126 79 58
5.19798 -4.54614 16.5421 141 138 90
1.77454 2.01461 14.0738 108 88 82
-6.08467 -0.0773896 14.0309 155 104 46
7.08523 -4.62337 13.7769 120 8 8
-0.755644 -4.3306 17.1427 26 9 0
-7.77604 3.41766 15.3709 68 10 8
-7.13523 0.35582 12.671 61 2 0
-1.14244 -4.91224 17.3464 24 12 3
-3.601 -2.37278 19.0307 108 67 39
7.50829 -3.10867 13.9308 160 137 130
9.11843 -2.27565 16.7624 145 108 78
7.218 -4.70638 13.97 117 10 13
8.25219 -5.36512 14.4336 28 27 24
10.4528 -5.72484 16.0232 102 79 34
8.94571 -4.16321 13.6891 124 77 51
7.08935 -4.59652 13.7013 121 10 10
-6.9948 -1.17147 12.4823 110 44 26
-3.49013 -1.816 15.039 94 60 24
-1.04475 -2.4079 17.1913 128 84 64
7.18166 -2.36151 18.6772 124 121 74
-4.18218 -2.76356 18.3639 130 90 56
9.6042 -1.37987 16.9955 149 140 118
5.88464 -5.8486 16.7282 124 104 86
7.64733 -3.26658 13.9018 154 134 128
7.15378 -4.2301 12.8956 118 74 44
7.78579 -3.35724 13.7363 142 122 116
6.07662 -1.44649 17.4904 138 106 83
0.684089 0.60166 15.0112 130 28 18
-2.67326 1.72242 18.0238 164 111 81
-6.55964 -3.13458 15.8442 82 45 27
8.19283 -3.70556 14.0833 176 153 148
-2.7425 1.73591 18.2128 160 108 78
9.74752 -4.69176 14.396 100 65 28
-8.33302 3.28154 14.4928 156 122 107
7.49277 -4.28202 13.0058 94 67 48
8.20598 -4.00852 15.5641 147 126 120
9.96953 -5.90409 16.5933 160 133 111
6.22795 0.243612 17.2752 141 118 105
7.18365 -3.27789 14.4781 140 112 100
-8.34862 3.36919 14.491 160 126 110
7.39173 0.592678 16.8794 146 104 85
-7.01347 -3.21213 16.0024 138 132 84
6.66245 -0.609187 16.2674 176 108 76
7.00886 -1.87052 18.6689 94 78 46
9.64895 2.01885 17.4308 142 124 109
10.1659 -0.650488 19.6053 90 68 30
-6.95588 0.39069 12.7593 119 11 14
-2.92274 1.74375 18.0508 123 79 59
-2.44116 -3.9977 17.1853 156 105 68
7.23903 -1.69539 15.7864 14 9 11
9.9186 -5.94862 16.6601 156 132 108
-0.563545 1.63649 17.1709 107 64 38
8.39409 -1.96718 15.6195 162 82 54
7.13454 -3.34182 14.1865 136 111 102
-0.891139 -4.14036 16.8596 32 12 2
4.46435 -2.9988 23.9105 80 81 41
-1.08621 0.342753 18.254 169 128 110
-7.57038 2.78497 13.8188 127 12 12
15.6729 -2.51374 27.2646 102 102 56
7.86305 -3.43837 13.7931 148 127 120
9.02566 1.99919 16.9464 170 141 114
8.03144 -1.56537 15.6321 138 77 48
-7.40519 2.07333 13.857 124 16 12
1.00248 1.88981 14.85 95 80 64
-0.627599 0.238768 18.6542 146 97 78
-7.34836 0.12274 15.9194 152 107 44
-2.39673 -3.33707 17.7037 144 138 86
0.3072 -2.47076 18.5205 154 144 119
6.56361 -0.836275 15.6246 177 103 70
5.06294 -6.33289 16.7171 144 140 90
-5.99416 0.759703 17.5258 175 128 104
9.21274 -2.93696 17.5507 105 46 34
-3.49158 1.47768 17.493 104 60 39
6.51412 -6.4192 17.5808 142 122 102
10.1642 -0.577141 19.3179 90 66 29
1.20543 1.95132 14.1308 136 28 26
7.21441 -3.99573 13.272 55 40 41
8.66315 -0.291273 18.0154 20 15 14
9.35736 -0.807351 17.8396 29 20 12
6.28564 -2.0418 16.2594 44 68 45
7.0119 -2.47044 19.6898 42 62 40
-6.73457 -0.380724 13.1941 163 147 128
7.1589 -0.528218 16.2617 182 152 130
-7.78235 1.95201 13.4757 45 24 32
7.51701 -2.79297 15.033 112 98 89
-6.54933 0.942783 14.8875 160 140 124
6.52153 -3.36331 17.1432 102 44 20
8.38152 -2.21903 16.498 11 7 5
9.38181 0.17732 16.3464 113 68 38
7.9182 -1.93567 21.0336 147 124 104
10.5122 -5.3527 15.771 96 60 21
7.13038 -1.67093 18.5811 160 148 124
1.97908 2.33728 14.5819 142 126 122
-7.42923 1.57341 14.5079 122 16 13
5.70061 -3.42714 16.1515 146 142 93
-7.41631 2.7791 14.2089 148 120 102
7.08541 0.290834 16.9114 102 62 36
7.80351 -5.0798 14.4677 10 10 10
9.77371 0.25737 18.3777 142 122 101
9.42999 0.200988 17.4294 144 122 102
5.55544 -3.36123 16.3987 141 139 90
7.11794 -2.41881 16.1137 106 32 20
7.08313 -2.38527 15.6453 144 45 28
-6.64401 -4.03337 16.7803 164 117 88
7.06674 -2.37699 15.6113 150 54 36
-0.371609 2.03792 15.5195 160 132 120
8.81744 -2.27168 17.3266 22 10 6
6.89016 -1.49136 16.0254 164 133 122
-3.57424 -1.91479 16.1155 98 64 28
6.65472 -1.46178 16.5187 158 143 120
7.32583 -2.28924 20.133 68 55 28
7.68682 -2.4032 21.7433 70 56 29
9.00942 -4.40166 13.717 140 114 86
9.71118 -0.803642 18.3914 158 144 117
6.3214 -3.0664 14.311 152 146 99
9.46925 -4.17402 13.8501 148 140 110
-6.51214 -4.28758 16.1886 65 38 18
8.09614 -5.49816 14.367 38 30 24
0.064557 3.12408 16.1111 142 110 100
0.947998 0.83891 17.7373 103 50 26
-6.00942 -2.57745 20.5782 150 108 89
6.50024 -1.17171 15.7272 189 120 81
6.04763 -5.75832 17.0925 148 129 111
5.37315 -3.85867 26.615 104 103 64
9.72125 -0.975437 17.4309 150 139 118
6.83654 -1.01436 17.0618 182 103 70
