ply
format ascii 1.0
element vertex 549
property float x
property float y
property float z
property uchar red
property uchar green
property uchar blue
end_header
1.76372 1.23529 10.66 0 255 0
-0 -0 -0 0 255 0
-11.2596 -15.1221 16.7635 0 255 0
-5.64147 0.920099 2.25649 0 255 0
-4.27039 0.494877 1.5577 0 255 0
-2.77138 0.0272027 1.10314 0 255 0
-1.47455 -0.284775 0.832195 0 255 0
-0.261191 -0.890749 0.793931 0 255 0
1.08998 -1.29848 1.00738 0 255 0
1.44072 -1.45848 1.07126 0 255 0
1.28261 -0.490492 1.10462 0 255 0
0.383268 0.0753946 1.41547 0 255 0
-1.13359 0.510778 1.45012 0 255 0
-2.73239 0.963796 1.25374 0 255 0
-7.47822 0.900949 2.81043 0 255 0
0.357013 0.353314 16.9465 132 130 114
1.88978 0.264916 15.3098 116 101 72
0.356352 2.69063 15.4588 67 34 31
0.397494 2.86814 15.5406 95 53 42
2.4651 4.00476 17.0589 90 59 58
0.738873 2.19525 13.8406 68 48 24
1.50946 0.455511 14.8041 46 24 10
0.144348 2.73262 15.4064 60 26 17
1.23353 4.72851 16.9763 130 86 66
0.885619 2.46331 15.3257 81 40 32
-3.66813 -0.374786 18.1526 142 140 92
0.150275 1.42945 14.2619 62 26 21
1.2831 0.366001 14.4633 100 73 59
0.436842 1.41319 14.5975 34 6 2
1.63524 0.483382 14.6246 162 137 130
1.47134 4.40574 16.855 73 28 22
0.202532 3.21216 16.0164 66 21 14
2.39234 3.52514 16.8019 104 68 66
0.374993 1.52414 14.5765 76 34 26
2.43363 -1.98143 16.102 84 64 38
2.02607 -1.70998 15.8476 38 40 14
-0.277366 2.51222 15.4609 36 8 4
0.00397786 1.15265 14.7574 44 17 10
-1.05797 1.51823 15.1666 152 106 80
1.58391 4.75233 16.9213 140 110 106
-0.363681 0.866183 14.4824 14 9 6
2.48145 -1.96396 16.2704 119 88 56
-0.383705 1.37113 14.585 156 122 114
-0.747959 -0.310924 16.0792 104 102 88
-1.125 1.27219 15.1408 27 9 5
2.43309 3.07934 16.4655 38 14 10
0.819477 4.03992 16.4568 62 20 16
-0.756451 1.7433 14.9093 163 111 82
-1.11475 1.81315 14.9991 84 30 20
2.31489 4.15604 16.9434 126 103 104
0.791064 4.04359 16.4578 54 16 10
0.766081 3.79218 16.3748 110 53 36
0.916743 4.59617 17.1354 85 30 20
-0.77813 2.40856 15.4123 52 17 12
-0.519896 -0.162716 16.0633 74 74 60
-2.29559 1.76839 12.5572 148 140 112
1.60814 4.57826 16.8171 142 104 96
-0.806623 2.46911 15.47 26 6 2
-0.544405 1.83541 14.86 70 27 20
-0.207143 1.87509 14.6999 62 28 23
0.635144 1.74423 14.7607 71 28 24
-0.654744 1.59948 14.5227 84 36 19
1.13052 -0.920492 18.0269 24 8 5
12.3027 -0.963983 28.5723 168 162 148
-3.17074 0.187848 17.3475 150 145 84
-2.08814 1.30409 12.4688 63 70 37
-4.50346 -1.87942 16.6475 42 46 25
-0.259118 -6.71587 18.2555 154 158 104
0.618692 2.1346 14.927 76 37 32
-4.43144 -0.314964 18.9792 150 145 86
-2.04008 1.96799 12.4444 108 110 93
-1.44108 1.83247 15.2966 156 105 78
-1.49743 2.67247 16.8816 74 34 20
0.927019 2.17138 15.0662 44 16 12
2.0618 4.28155 17.0193 70 36 30
-2.297 1.56502 12.7118 155 145 122
-2.39638 2.67395 11.8237 59 66 42
-2.13913 2.15022 12.1919 60 63 38
2.38104 3.86223 16.8577 94 63 61
-3.3138 -0.0941811 17.4549 82 58 37
1.01559 0.70614 13.7626 36 36 13
-0.722432 1.48264 14.584 146 100 74
-2.10119 -0.955617 16.5248 65 66 36
-4.65564 2.05999 13.1974 35 40 23
2.29923 -1.80609 15.646 118 82 50
0.983065 4.27109 16.7746 107 51 34
-2.43616 2.63844 11.7637 56 64 32
-2.64169 3.04576 11.5928 154 146 132
-2.06526 2.69564 11.986 156 144 131
-1.21375 0.118849 17.0741 23 26 10
1.87844 1.13942 15.0741 74 45 36
0.996821 3.30762 16.0444 101 44 27
-1.23785 0.835276 14.4572 34 38 25
1.49067 4.71587 16.8229 135 106 101
2.77877 3.90247 17.2852 129 108 110
-0.762211 0.219006 15.9923 36 42 30
-1.17722 0.256705 15.5542 45 50 36
-1.32268 0.337892 15.4378 34 41 29
2.86457 3.87582 17.5486 107 84 82
2.39292 1.53658 16.0646 60 34 28
0.855508 2.61822 15.2735 78 34 24
0.987179 2.71839 15.4611 85 38 30
1.14472 0.652775 13.7524 134 108 98
1.03268 0.609021 13.8293 130 104 90
1.74516 1.14062 15.1117 21 2 1
-2.29839 1.45861 12.8395 160 150 130
1.29345 0.290649 14.8537 20 8 4
0.168423 0.193118 16.987 62 66 52
2.47232 3.32578 16.5884 94 55 52
10.5208 -0.739847 26.9367 158 154 142
0.657271 1.099 13.8855 146 116 103
0.545958 1.00725 14.114 122 88 69
1.90149 -0.196989 14.6653 146 103 91
-1.9564 -1.43017 16.1493 110 106 61
0.0534491 3.26173 17.6309 90 44 28
-0.529263 -2.41685 19.3801 101 106 80
-0.632359 -0.362882 16.087 103 102 96
12.1314 -1.8004 24.6928 169 164 148
7.2899 0.168415 20.3771 162 156 144
-4.79228 2.41089 12.7873 46 52 29
-1.10809 0.269088 15.8446 38 45 28
-1.1301 1.17437 14.8861 10 4 2
55.5275 -8.60222 105.297 138 140 103
-0.672616 3.73401 17.6665 71 28 18
-0.518844 4.17592 18.1073 135 116 100
0.136042 2.47211 15.1283 75 36 26
2.52411 1.55751 16.2691 55 32 25
3.47341 0.281035 17.3778 150 149 138
1.99572 -2.17296 16.1404 152 166 118
3.04317 1.1211 17.3835 58 36 24
-1.10378 -0.0689418 15.6646 28 30 15
2.86934 2.3732 16.9776 52 24 18
1.09902 1.26988 13.7512 32 36 15
-1.19653 1.02609 14.3515 11 5 4
-1.76408 1.80276 12.5389 160 148 128
-4.60318 2.05807 13.4549 135 130 112
-0.967203 0.403932 15.5892 30 32 20
4.92673 -0.0295454 23.5301 144 146 135
2.22073 -4.58926 12.901 38 46 24
-0.374092 0.947617 14.0321 14 7 4
2.74298 1.81077 16.7797 27 17 14
-1.82182 1.61716 12.4737 27 40 24
-4.3307 1.68447 13.4896 40 46 30
1.91896 3.88401 16.6168 66 29 25
1.79298 -4.31469 13.5893 149 155 109
-2.0071 1.34114 12.655 64 71 40
-1.94017 2.91536 11.5344 162 151 139
-1.818 2.24581 12.0732 156 148 131
2.65676 3.87269 17.254 96 71 67
1.55914 -3.5973 13.7463 148 158 112
-2.04744 3.00652 11.503 74 70 47
-0.10034 1.47637 14.014 54 21 12
0.654318 -5.97435 16.382 154 159 112
-2.19192 2.5004 11.8949 164 152 140
-1.83293 2.3968 11.9795 127 122 106
1.60886 -3.71263 13.8139 108 114 81
2.8142 1.88333 16.5974 75 40 28
1.10062 -0.303522 16.111 36 34 16
-0.462314 -0.175482 15.6309 80 79 68
-2.04374 -0.420184 14.9405 36 38 17
2.12715 0.223612 15.0756 138 106 100
-0.275124 -2.21569 17.7569 41 48 22
1.92044 0.585732 14.9496 46 22 18
-1.98457 2.19876 16.5839 78 50 26
1.09746 2.05637 15.0697 42 18 12
-4.36102 -0.14858 18.9533 152 148 87
2.04756 -0.226685 14.7631 170 138 132
-4.79602 -0.474109 20.4518 56 58 24
-3.88995 1.39923 14.0339 114 110 74
2.37428 -4.91432 12.8158 38 50 24
-0.987749 3.32585 17.5687 72 29 16
-1.9429 -0.658476 15.4876 52 56 26
-1.88467 -0.611764 15.22 55 58 26
-2.1523 -1.55405 12.4045 96 100 51
0.0340293 4.47617 17.5226 135 106 90
1.36219 2.68873 15.5594 53 20 16
2.98348 1.10627 17.3852 42 24 17
-1.90736 -1.36523 13.2182 98 98 52
-1.45691 1.57236 15.2094 132 92 66
0.668741 -2.47738 17.714 62 67 37
-2.12606 -1.66394 10.9341 66 73 24
-0.899494 2.75769 16.1039 88 47 33
1.05712 2.90522 15.5565 62 20 14
-1.93224 0.976103 12.4788 67 71 32
-2.47488 -1.73521 11.906 98 100 53
-1.89994 -1.26985 13.5414 48 54 23
-1.92722 -2.21604 12.2309 152 152 97
0.966904 -0.991156 19.02 40 13 4
0.426101 -5.50876 24.488 150 160 108
2.03922 -3.96197 13.0951 154 164 112
-0.965682 2.34423 15.6138 74 32 20
-1.56446 0.186648 17.0805 23 28 14
-0.744067 3.17479 16.5484 91 44 27
-1.57347 -1.24429 13.2421 110 106 56
-0.637656 -1.19683 13.8441 52 63 48
-0.279936 3.64368 16.909 84 30 17
2.14013 1.2658 15.7913 68 40 32
7.18572 -1.19111 19.2522 93 109 74
-2.33318 -1.68152 11.8901 73 78 33
1.83489 -3.99362 13.4715 136 142 104
-3.13451 0.603854 14.5986 148 144 87
2.51597 -5.27678 12.3082 158 162 106
1.18667 -3.52906 13.9917 65 72 38
0.521426 -1.60696 15.4329 112 118 89
1.39153 -1.36415 18.8751 156 166 117
-8.70514 3.33209 19.9538 168 156 134
-1.95425 2.73216 11.6743 52 57 24
-0.411293 -0.516322 16.0053 52 58 46
2.03924 1.53108 15.813 68 37 29
-1.29312 3.04099 17.2231 85 41 23
2.39639 -2.62172 15.8238 92 98 56
2.15977 0.426457 15.1289 130 96 86
-1.22043 2.10632 15.8252 85 34 22
-1.62533 2.52688 15.8725 156 146 122
-0.577486 -0.61568 15.7274 75 81 74
0.111324 -2.70994 17.2629 156 163 112
-4.01474 -0.669063 18.958 134 132 78
0.0706913 -0.408276 16.7442 24 36 24
-1.97395 -0.718127 15.8543 53 58 25
0.293578 -5.20698 15.744 64 76 36
2.20512 -0.482065 15.7799 10 7 2
-2.54629 0.936415 14.1444 164 152 126
2.86879 0.34361 17.1965 39 20 11
-1.666 1.95563 15.7918 157 110 82
0.0267471 -1.10517 21.7445 157 162 112
3.06056 3.30208 17.7783 65 28 19
1.6582 0.187797 15.1883 34 10 4
3.57051 0.367365 26.0988 72 52 34
3.80402 0.206332 25.5061 146 147 138
-0.181974 0.0669555 16.6025 54 64 49
1.85423 -1.52718 17.4957 62 54 26
-1.75941 1.59631 15.9367 46 29 18
-3.14022 0.148552 14.926 154 148 86
2.59991 -0.721115 16.6067 96 71 46
3.3501 2.0626 18.1846 135 133 121
1.51367 0.862846 14.2238 62 24 18
3.35818 2.03759 18.0252 135 132 122
2.16699 0.895552 17.139 63 35 29
3.3589 2.5259 18.8427 72 35 27
2.55646 3.62638 16.9523 78 42 38
-0.917272 -0.560064 15.2165 37 38 25
-1.90159 2.44267 11.9255 47 55 29
-0.0380558 -2.67162 17.2255 38 53 27
3.2683 2.81015 18.0197 58 27 18
1.36301 -3.75441 14.1266 38 49 26
-3.66003 0.298766 17.9375 126 86 62
2.17527 -4.70775 13.0238 151 158 107
0.703489 -2.50091 14.3268 32 39 24
-2.51955 2.87569 11.6784 62 68 43
1.81842 0.708485 14.8679 43 22 16
0.0343057 -2.09041 17.105 36 46 24
0.1942 0.96774 13.0821 156 110 84
0.48904 3.6656 16.2663 78 25 15
2.52067 -0.827058 16.7796 134 113 88
-0.0163515 0.581836 16.7858 20 22 11
2.178 -1.82858 16.691 46 44 16
2.59273 4.08264 17.2263 128 110 107
0.861785 3.61746 16.3556 96 36 22
-2.4487 2.53301 11.7402 140 134 117
-1.90495 1.81537 12.3926 32 44 23
1.23622 0.557052 14.7005 117 89 74
3.75146 1.46199 18.3932 141 138 128
3.228 0.98744 17.6998 142 140 128
2.91089 3.94759 17.5474 130 111 110
-2.33029 1.93509 12.427 150 142 122
-2.09518 1.94315 11.8896 66 76 53
0.176357 -1.56666 15.4117 48 50 30
0.96958 1.81022 15.0041 45 38 21
2.13078 -1.48802 16.0591 54 54 25
-0.659553 -4.13896 19.0039 65 80 37
-0.0719103 -3.44496 17.407 140 148 101
2.81674 2.28137 17.0368 59 27 21
1.47554 0.17298 14.6344 44 19 13
-1.22698 -0.711933 15.6003 46 46 26
-0.0697692 -3.41734 17.2597 120 129 85
2.13229 2.10297 15.6519 32 10 8
2.12832 1.1952 15.3852 65 36 29
2.22617 4.445 18.0633 70 30 28
-0.934083 -4.26535 19.8936 66 81 36
-0.181936 -1.96432 17.3891 38 46 22
-0.40094 -0.362815 15.9169 42 46 32
-0.651257 -1.19703 13.9109 46 56 36
-2.07183 3.11473 11.1308 165 151 140
0.233422 0.11792 20.1921 8 5 4
-0.859089 -2.79615 15.7843 121 122 76
2.49383 -5.32006 12.6682 104 114 69
-0.412555 1.20077 14.674 58 25 14
1.29983 0.925321 13.8138 64 24 17
0.762029 -1.29543 20.1341 155 155 106
2.27696 -4.56456 13.237 96 100 67
0.24378 -1.99884 15.0809 68 75 44
0.0350804 -5.54379 17.3866 56 72 34
1.8784 -1.66489 17.0796 148 161 112
-1.63094 2.6037 16.8038 156 142 118
-2.14279 -1.80215 16.349 150 150 98
1.8699 1.93686 13.2229 54 24 21
-1.38054 2.91212 16.8892 152 138 117
3.01052 0.535401 16.4455 144 145 134
3.25271 2.22183 18.172 40 12 5
-1.19943 3.26613 17.2879 151 134 112
2.23813 -0.513909 15.4084 104 82 56
0.690597 -6.27705 16.8364 114 124 79
1.55315 -0.0064372 14.5165 28 13 8
1.92506 1.08873 15.713 38 12 6
2.02832 -1.79661 16.7108 146 158 116
-2.06276 1.94961 18.553 72 32 20
-0.609158 -3.98171 16.6048 148 152 100
2.57336 0.163876 15.8322 71 48 34
0.533363 -1.76958 15.0484 39 49 33
0.478847 -1.97601 14.9976 36 42 28
-2.64842 3.28229 11.3946 92 86 66
-1.86566 1.88054 11.6671 161 148 127
1.29911 -3.38338 14.2631 38 50 30
0.375785 4.61233 17.4994 53 18 14
-0.303575 -6.41879 19.053 152 154 104
3.41218 2.268 18.4928 136 133 122
0.192573 -1.38488 15.2735 44 50 37
1.32707 -3.69051 13.7058 53 60 28
0.661188 -2.43756 14.5954 32 40 25
2.40747 -0.173766 15.8308 148 125 104
-1.82466 -1.43373 16.7656 60 57 36
5.22433 -0.579364 27.6698 96 128 90
-0.443602 -1.0189 14.5676 46 60 43
-0.100242 -7.0502 18.971 102 112 64
0.797262 0.892887 14.5012 34 38 18
-2.08298 2.97521 11.1646 136 125 106
2.87581 2.39545 17.0596 66 32 26
0.598501 -2.54847 14.9272 72 74 44
-0.0798618 -0.820057 16.8082 51 57 44
-2.22035 2.56349 11.6285 164 153 138
-2.15695 3.03337 11.3233 162 150 138
-2.53118 2.77707 11.6075 142 136 118
-0.280876 0.628344 15.3372 16 16 8
-2.35892 2.82387 11.5625 150 142 129
-1.95497 2.90263 11.1806 105 98 75
2.15824 -4.46751 13.9049 139 145 102
-2.54761 2.89449 11.2024 164 152 138
0.78786 3.09752 15.7042 88 38 26
2.25027 -5.12345 13.8254 151 156 104
-1.70064 2.15077 11.8295 162 152 134
2.34234 2.26554 16.3294 68 30 23
1.74016 -4.01577 13.6588 82 84 66
2.27054 -4.61601 13.8027 137 142 99
-2.20125 2.99157 11.8413 162 148 137
12.3376 -1.87989 25.1009 166 160 145
-0.179676 -6.98475 18.7722 97 110 60
3.02171 1.6947 17.3999 76 40 24
0.287473 2.85408 15.4845 98 50 30
1.39567 -3.98 13.8346 150 158 106
1.77173 -4.27163 13.4901 155 158 110
2.33175 2.87039 16.2577 102 64 57
-1.41607 2.24268 10.4216 164 149 134
1.84638 -0.392882 15.283 134 82 59
0.462691 -2.28107 14.9875 73 76 48
3.03867 0.483463 17.1525 146 145 136
2.44255 -4.72945 13.4231 152 160 109
1.55433 4.56111 19.2001 81 32 24
1.36421 0.841069 14.4166 74 30 22
-1.39115 -2.38133 13.6296 56 60 48
3.06283 3.74214 17.6966 103 80 72
-2.07738 2.89087 11.2073 164 151 138
1.50597 1.26838 12.7416 68 34 30
0.591865 1.42841 14.4799 74 27 16
2.63491 -5.92957 13.8619 134 142 94
1.76989 0.339151 14.6914 144 118 100
6.37871 0.217211 25.368 146 146 137
2.26123 2.71702 16.1896 92 55 48
-0.325533 -1.70165 16.9083 154 159 108
0.792402 -2.89917 14.399 97 100 60
0.781708 2.43096 15.056 84 36 26
-0.485032 -1.02083 14.9848 55 68 52
0.87145 3.42243 15.9856 93 34 22
2.38008 -0.782056 16.9941 54 22 4
-6.57916 -3.04484 17.4686 38 44 21
0.481093 -0.416255 19.73 19 8 6
-6.46626 -2.87487 17.3317 42 48 24
-1.27221 -1.91929 11.4849 150 146 100
-5.30657 -2.24107 17.2001 44 46 22
1.81745 1.67219 12.3727 56 23 20
-5.8383 -2.72743 17.368 38 40 19
-1.05195 -0.965342 16.3788 50 58 41
-5.86621 -2.53736 17.286 46 50 27
-0.39112 -1.12426 12.8937 48 60 41
-0.112875 -0.392703 5.79851 159 150 109
2.21416 -0.298397 15.8254 92 62 34
2.3334 -4.77817 13.1094 36 46 20
-0.466014 -1.69392 14.2922 156 159 108
-0.504192 3.30754 16.6319 81 34 20
-0.120944 -4.21649 16.5181 60 72 30
0.407403 -0.777065 19.2218 31 13 9
-0.213417 -5.28432 17.5627 152 154 100
-0.510066 -1.24347 14.9721 50 64 42
0.931073 -1.48376 4.68416 156 158 108
0.0380984 -2.32851 17.1382 44 58 31
-5.64229 -2.30157 17.2214 154 149 98
1.96085 -1.79375 16.6179 148 160 114
3.54844 -0.672454 24.0952 132 152 108
-1.81681 0.835304 12.9009 83 84 54
-6.63641 -2.87002 17.3785 130 126 84
2.06559 -0.811166 14.4717 146 117 108
-1.99321 2.10633 12.5594 36 44 23
-5.15151 -2.13916 17.2607 51 52 28
2.41183 -5.16667 12.649 42 52 26
2.39374 -5.29429 12.9353 44 52 24
-0.207953 -3.96085 16.3427 87 97 54
2.76121 -1.34844 17.9499 134 154 110
-1.77381 1.27695 13.0216 24 30 16
-6.49542 -3.1434 17.2247 156 154 102
2.28326 -4.79796 13.1248 36 45 19
-0.398371 -2.35543 17.9977 146 151 101
2.48849 -5.24353 12.7484 104 114 68
1.97463 -0.206832 15.3945 141 101 84
-1.76459 2.50462 11.7767 166 150 136
-0.233691 -6.33509 18.3504 154 156 104
2.45453 -4.82658 12.272 152 160 109
-0.165269 -3.304 17.4883 37 55 27
-0.165768 -5.89109 18.9189 43 58 24
-0.551008 -3.11414 16.1448 84 97 48
-5.63158 -2.55744 17.2439 48 51 30
-0.485392 2.46383 15.3271 84 36 20
-6.41934 -2.70886 17.4212 154 150 104
-2.14007 3.03782 11.296 141 131 114
3.50179 -2.79017 19.94 142 160 116
-0.172423 0.0801706 16.356 54 64 46
2.51645 -0.26142 16.1602 66 43 25
0.0754423 -5.10308 17.6329 146 154 107
2.46318 -5.01944 12.8925 112 120 80
-5.76961 -2.87379 17.6027 154 153 96
-5.45589 -2.46934 17.2158 49 52 28
0.877711 -2.54141 14.6611 41 50 35
-4.84634 -2.06311 17.0398 78 76 50
2.47414 -5.62942 12.701 54 64 28
-0.497506 -3.41617 16.434 74 92 45
-0.185285 -3.85738 15.8022 74 88 44
0.105157 0.241329 16.7953 66 72 58
-1.7988 2.00148 12.1665 138 132 114
0.0312337 -5.6163 18.2429 56 71 34
-6.80925 -3.27624 17.6511 158 156 100
-0.625455 -6.23383 26.6299 152 158 108
-2.17997 -1.15469 15.5563 44 50 22
-0.624143 -1.83642 13.3616 79 89 72
-0.171913 -3.79234 16.3335 86 96 56
0.0900233 -2.48668 16.9193 106 114 75
-1.24847 0.247526 16.0481 64 66 43
-0.687091 -3.87639 16.68 150 154 106
-0.0891298 -3.03868 18.3751 124 132 90
2.31015 -5.24356 12.9867 143 148 96
0.019595 -1.8892 17.1182 60 62 39
-2.56407 2.58402 12.0294 161 152 137
-0.252686 -6.09329 18.5867 145 149 102
1.94124 1.05806 14.696 81 53 44
-0.570025 -1.5628 14.4569 68 80 59
2.48854 -5.51447 12.6242 114 121 72
2.51258 2.99963 16.4979 62 30 25
-1.98089 0.221155 18.071 32 31 16
-2.11354 2.66208 11.9955 164 151 136
-4.27702 1.42053 13.5687 138 132 94
-2.32051 2.4849 11.8842 67 72 50
2.72263 0.642595 16.5492 82 56 38
-0.892774 -2.80534 16.4404 96 100 55
-2.02805 2.49772 12.0001 160 148 132
-0.3671 -2.55065 17.6753 76 80 42
-6.14839 -3.0298 17.4822 158 154 101
-2.44526 2.26734 12.1421 164 153 138
2.77161 1.35435 16.8024 66 38 27
-0.722864 -0.893666 16.3689 42 52 36
-2.15949 3.21075 11.3984 166 153 142
1.07548 -3.3981 14.0957 110 118 78
-0.540785 -3.13565 17.8907 152 159 106
-0.48198 -2.92783 17.646 150 156 106
1.65687 -3.82222 13.8832 89 94 64
-0.322649 -3.76286 16.4242 67 82 37
-0.94883 -3.19309 16.6048 152 156 106
2.20732 -4.77351 12.8594 130 130 89
-0.489795 -2.84825 17.6894 152 157 106
-0.0355415 -1.91596 16.8155 32 42 19
0.993546 2.94813 15.5206 63 19 12
-2.09675 2.46433 12.1646 162 152 135
5.96323 0.0806708 27.5444 145 145 136
-0.328834 -3.63326 16.4428 120 130 82
12.4344 -2.30075 27.0212 134 142 96
0.634393 2.0648 14.8305 80 38 26
-0.746504 -3.40433 16.4656 102 107 59
-0.491062 -2.95751 16.0052 150 157 107
-0.321711 -3.97945 18.7714 39 52 22
-1.97851 2.77918 11.1883 162 150 132
0.98724 0.324694 10.0156 30 36 14
-0.764084 -1.62474 12.8757 52 60 42
-1.06998 -2.02348 12.3265 58 64 52
-0.371578 -2.60383 17.5945 122 126 86
-3.90302 -1.423 16.9038 68 68 35
-4.15907 -5.00711 20.7422 150 150 98
1.97517 1.88234 15.5027 78 46 38
0.0956083 -2.86631 17.0916 154 160 108
-1.00387 -2.84699 16.7281 106 108 62
-1.77894 1.90258 12.1428 70 72 53
3.15485 3.75 17.7242 114 90 86
1.3952 3.63886 15.8847 94 36 25
-2.43976 2.96388 11.6423 157 148 134
-4.41205 1.88819 13.3888 120 114 94
1.05498 -2.6315 13.9339 83 90 54
1.23913 0.827253 14.1735 66 30 20
0.779448 2.9818 15.6225 74 28 18
-2.67934 -1.97524 14.773 154 148 90
0.0195846 -4.14152 17.2056 128 137 90
-1.99304 3.04368 11.3317 164 152 140
-0.255012 -2.214 13.5973 156 159 107
8.30159 -1.13351 27.6462 92 118 82
2.4101 2.6235 16.1275 88 50 40
1.87915 3.88786 16.5149 63 26 22
10.0645 -1.31672 26.0475 154 152 140
-3.20786 0.880426 14.2677 30 33 19
-3.17764 1.91258 12.453 168 156 134
-2.30107 2.38707 11.8619 108 104 84
-4.58793 -0.571547 19.1948 150 146 86
-3.70492 0.962264 13.8899 150 145 90
-3.43545 0.967618 14.0283 34 38 18
-3.56759 1.21209 13.9625 131 128 80
-2.38614 3.48411 12.0717 164 150 139
-4.21684 1.39974 13.4299 126 123 74
-4.11908 1.42725 17.1381 150 142 84
-2.30419 2.2335 12.0296 68 74 48
-3.79413 0.867068 13.8452 152 148 88
-11.1184 4.41326 36.0196 126 120 64
-4.11418 1.05756 13.867 152 148 90
-3.37193 0.720529 14.4242 153 148 85
-12.632 5.52894 39.4127 164 150 125
-4.7821 2.45743 12.937 132 124 106
-4.99842 2.3746 13.074 90 88 66
-3.92839 0.961943 14.1041 152 147 89
-12.6643 5.8974 38.7645 165 154 132
-11.0652 4.93436 36.8485 162 151 128
-11.5757 5.25289 39.4616 162 152 130
-4.8896 2.55645 13.1083 124 117 97
-3.26736 1.09677 10.5299 108 106 58
-3.49448 1.1838 14.3636 146 140 81
-3.58405 0.848063 14.2192 152 146 86
-4.97884 2.15686 16.532 162 151 129
-4.03885 1.10563 13.8532 152 148 90
-4.88523 2.15069 16.9044 162 151 126
-4.98061 2.34448 17.7328 164 154 130
-4.95461 1.65926 14.9213 148 142 78
-2.34619 1.96961 12.4385 161 152 130
-4.80713 1.62078 14.4184 148 142 78
-4.57564 1.69693 13.6392 71 72 40
-4.74285 1.52028 14.8512 150 145 86
-4.43029 1.87353 18.3885 127 122 66
-4.09677 1.41818 16.6686 140 138 82
-4.65064 2.212 13.3176 165 153 132
