ply
format ascii 1.0
element vertex 503
property float x
property float y
property float z
property uchar red
property uchar green
property uchar blue
end_header
0.620168 -0.174515 5.79302 0 255 0
1.1295 -0.259618 5.61355 0 255 0
-0.0306276 -0.370104 6.04478 0 255 0
-0.00246459 -0.632389 5.85004 0 255 0
0.427635 -0.215325 5.67355 0 255 0
1.30052 -0.279983 5.42679 0 255 0
1.4921 -0.299252 5.35488 0 255 0
1.23046 -0.338052 5.27796 0 255 0
0.68959 -0.39507 5.79402 0 255 0
2.21473 -1.45698 9.35356 144 121 91
2.2569 -1.19132 8.98229 158 111 88
2.32675 -1.16823 8.91029 147 111 94
2.32468 -1.15533 8.9229 166 124 103
2.28586 -1.16304 8.9678 150 114 98
2.23036 -1.17275 9.15778 155 134 122
2.28631 -1.10613 9.04945 118 39 32
0.832786 -1.25396 9.65489 116 76 58
0.788743 -1.23256 9.65492 125 75 56
2.31799 -1.05724 9.02988 80 47 38
2.3319 -1.05216 9.02539 46 21 8
0.699195 -1.20963 9.67154 88 32 12
-0.176481 -1.133 9.42171 158 110 85
2.26824 -1.07008 9.14145 148 116 96
0.649184 -1.19526 9.68738 114 49 26
0.668701 -1.19015 9.66815 102 36 14
0.651666 -1.14707 9.66693 96 21 2
-0.0213454 -1.09411 9.52523 65 20 4
0.651468 -1.13249 9.66817 96 23 5
-0.219469 -1.06378 9.42053 170 124 95
-0.206108 -1.0566 9.42431 122 80 58
-0.276013 -1.05688 9.46518 97 64 45
-0.0523124 -1.04217 9.49277 86 32 16
-0.00488008 -1.04196 9.49268 90 36 19
-0.0449497 -1.02894 9.48739 102 40 24
-0.239546 -0.998624 9.41808 156 114 88
2.4435 -1.04844 9.68337 167 148 105
2.43596 -1.04412 9.71036 122 90 48
1.03296 -1.02854 9.782 35 11 0
3.07509 -0.965394 9.52176 118 90 78
1.04735 -1.02002 9.81098 152 134 98
3.04707 -0.970708 9.54044 79 54 44
0.823756 -1.01112 9.77543 94 46 24
2.41924 -0.9708 9.57474 187 138 112
2.60674 -0.933726 9.42233 92 76 60
3.06444 -0.95197 9.54271 42 22 10
2.59948 -0.938849 9.49858 79 75 44
2.52626 -0.969353 9.66921 167 145 108
2.53436 -0.957228 9.68401 76 48 17
2.52479 -0.939316 9.65781 144 119 86
3.13182 -0.925597 9.64184 163 138 109
2.603 -0.806278 9.2294 160 55 43
0.962608 -0.851314 9.75824 156 108 86
2.3088 -0.801446 9.52002 54 32 16
2.30186 -0.794202 9.51548 42 22 10
2.63244 -0.742048 9.19277 120 22 2
2.68262 -0.73079 9.19575 163 95 74
1.05366 -0.789555 9.7685 46 17 4
2.88139 -0.670512 9.22864 195 135 108
2.41009 -0.721229 9.60927 158 120 100
2.43081 -0.714098 9.64461 56 20 4
2.61018 -0.656188 9.31668 116 98 88
2.65028 -0.626934 9.29534 73 68 70
2.59204 -0.622607 9.34196 50 27 16
0.999518 -0.694369 9.8452 170 143 123
2.33999 -0.650011 9.55976 92 50 36
2.3074 -0.631682 9.66877 169 126 98
2.63717 -0.576433 9.31199 89 77 78
2.80826 -0.561898 9.29238 136 86 66
2.82472 -0.543812 9.28758 79 27 11
2.65902 -0.530194 9.26838 46 16 10
2.82725 -0.528087 9.29209 163 112 90
2.65103 -0.589415 9.98754 47 32 8
2.75514 -0.509327 9.26837 56 32 30
2.84138 -0.506557 9.30059 80 34 16
0.559492 -0.539559 9.44119 88 35 19
2.85473 -0.503937 9.2999 187 152 132
2.63808 -0.500465 9.28848 76 37 22
-0.294084 -0.569364 9.77113 46 12 3
0.312505 -0.525609 9.34961 142 92 78
2.59188 -0.495544 9.30109 186 139 118
2.60512 -0.488091 9.3132 68 20 4
2.6935 -0.483545 9.28358 152 120 106
2.76464 -0.482544 9.27002 51 24 18
2.71171 -0.470497 9.27798 182 130 114
0.356556 -0.490556 9.37923 137 88 73
2.30733 -0.503372 9.7644 126 100 76
2.39919 -0.447245 9.78083 35 18 5
2.3186 -0.446505 9.79991 39 24 8
2.91454 -0.415929 9.49248 46 20 8
2.90527 -0.395406 9.48983 108 82 66
2.22734 -0.424001 9.95454 114 88 60
2.89675 -0.359232 9.4898 34 17 4
2.28168 -0.382969 9.89455 128 88 64
2.52236 -0.360511 9.48989 118 84 70
2.53594 -0.358901 9.4615 132 100 86
2.35359 -0.37569 9.83198 160 116 92
2.65551 -0.323995 9.41704 44 20 5
2.65418 -0.311868 9.40101 178 154 140
2.51992 -0.31049 9.49718 38 22 15
2.74526 -0.299118 9.45607 97 52 26
2.50826 -0.299895 9.53852 40 28 20
2.91033 -0.258538 9.48994 112 67 50
2.77323 -0.24221 9.44704 123 104 88
2.27995 -0.196608 9.67876 148 86 64
2.23945 -0.154697 9.72415 148 90 66
2.28261 -0.0858732 9.69202 116 36 34
2.47038 -0.0853124 9.46679 118 74 54
2.49724 -0.0752001 9.49488 192 160 150
2.32197 -0.0507325 9.61659 108 80 76
2.30592 -0.0484019 9.65871 150 120 116
2.70899 -0.0470431 9.3728 174 140 126
2.41298 -0.0414616 9.48673 123 84 66
2.70988 -0.0317369 9.38257 118 72 53
2.42038 -0.030589 9.48819 184 143 128
3.03654 -0.00127381 9.44981 60 37 28
3.09 0.0067814 9.49361 183 152 140
2.33173 0.00223737 9.63935 164 137 136
2.98536 0.010717 9.42211 64 26 18
3.06912 0.0153762 9.4627 168 140 122
2.33812 0.00587857 9.62328 117 90 87
2.93784 0.0125992 9.39877 154 97 74
3.07448 0.0212826 9.49383 82 58 50
3.08454 0.0187138 9.46645 103 70 52
2.88725 0.0242014 9.40259 146 114 100
3.07669 0.0359587 9.49167 170 145 130
2.91139 0.0687089 9.4426 60 32 20
2.52297 0.0728306 9.49395 182 146 137
3.10726 0.0877801 9.54666 56 38 21
2.55584 0.0760413 9.48372 134 96 90
0.704927 0.0698255 9.8839 216 162 127
2.48689 0.0924501 9.52446 112 56 52
2.77089 0.093893 9.43137 124 49 40
2.40752 0.0979773 9.59907 124 92 85
2.55651 0.0922645 9.44055 139 98 88
2.64354 0.118143 9.44082 122 52 50
2.6366 0.122307 9.45175 198 124 100
1.71313 0.0991048 9.35292 144 126 114
2.87889 0.137978 9.46729 48 32 27
1.61107 0.0864496 9.15993 102 84 69
2.90207 0.149409 9.45917 42 28 16
2.5069 0.147521 9.53762 51 19 15
2.52742 0.146095 9.5076 56 22 17
2.57613 0.14302 9.46635 194 144 115
1.74349 0.118112 9.3098 190 174 166
2.55332 0.161185 9.50422 42 15 12
2.5654 0.168122 9.50489 162 128 126
2.54654 0.172027 9.51845 76 54 48
2.60002 0.169464 9.48698 42 16 13
1.00285 0.122457 9.35716 87 64 53
2.58806 0.174475 9.48942 166 136 129
2.64496 0.173416 9.46408 127 90 86
-0.253693 0.134291 9.89575 168 116 90
2.63294 0.182336 9.4816 49 24 24
2.63798 0.18137 9.46791 153 121 118
1.70453 0.148322 9.325 150 132 120
0.997047 0.133663 9.35563 157 130 118
1.58603 0.130418 9.14951 154 128 116
2.63563 0.195049 9.4982 82 59 55
1.19808 0.134461 9.10662 200 174 164
1.72836 0.168145 9.33437 108 88 76
0.985483 0.153919 9.35466 102 74 62
-0.403799 0.127347 9.14005 131 71 38
1.19571 0.16917 9.09869 94 80 74
1.48618 0.198642 9.09658 216 202 198
1.25262 0.196017 9.08309 78 56 50
1.44604 0.207714 9.07155 80 64 56
1.20661 0.362952 9.3551 222 197 190
1.24949 0.366227 9.35109 169 155 156
1.2615 0.390772 9.33287 128 100 102
1.19759 0.448057 9.38681 190 158 152
-0.279704 0.464017 9.29113 112 52 41
0.502239 0.0398689 10.0031 164 113 90
2.29814 0.0467878 9.79446 162 140 132
2.49571 0.0874005 9.53862 130 76 74
2.32017 -0.049934 9.63731 112 85 80
2.25592 -0.0900189 9.65698 132 24 22
2.6388 0.11774 9.44829 136 59 47
2.5844 0.13512 9.47834 195 140 108
2.87552 0.137751 9.46378 68 50 46
2.5 0.142772 9.5373 120 86 86
2.61293 0.141061 9.45611 190 148 102
2.74172 -0.30442 9.46237 72 33 14
2.35327 -1.08871 8.96521 130 26 21
2.67277 -0.313882 9.45354 166 138 121
2.72411 -0.326371 9.48137 151 127 114
2.3006 -1.11167 9.08237 128 34 28
0.777332 -1.24689 9.66268 162 104 78
2.32286 -1.06014 9.02658 34 8 5
0.69924 -1.21712 9.67683 92 37 18
1.19614 0.390789 9.36013 161 134 127
-0.0202194 -1.15793 9.55836 150 104 76
2.63385 -0.353096 9.37858 183 156 140
-0.120621 -1.08132 9.45706 114 66 47
2.87956 -0.380742 9.46325 122 102 82
2.90747 -0.384647 9.44729 34 16 6
-0.0531405 -1.03393 9.48882 78 26 10
2.58809 0.16574 9.46068 44 18 14
-0.2388 -0.497624 9.81648 144 121 101
1.24929 0.363872 9.35259 154 128 128
1.2032 0.362384 9.35542 222 197 190
-0.132567 -0.964948 9.51946 137 78 62
2.60765 -0.49348 9.32131 66 20 4
2.63088 -0.496224 9.30093 84 45 32
-0.292781 -0.5672 9.72391 93 64 52
0.549011 -0.544362 9.44966 80 27 12
-0.298744 -0.579056 9.71153 82 38 18
2.39938 -0.909373 9.71093 108 48 26
1.06862 -0.917964 9.78209 40 14 3
2.62419 -0.587045 9.3725 46 30 24
0.270609 -0.601581 9.35935 208 153 113
2.72775 -0.58122 9.29131 22 12 12
-0.36343 -0.660777 9.70953 173 143 113
0.962171 -0.854691 9.76348 142 94 74
2.31429 -0.656966 9.65268 92 46 21
1.0101 -0.692093 9.88673 165 146 123
2.34283 -0.657836 9.63833 51 12 2
2.59235 -0.625471 9.34252 66 42 31
0.976493 -0.693147 9.77443 30 8 2
2.32355 -0.673861 9.62869 149 113 90
2.28074 -0.772539 9.54612 170 139 120
2.59196 -0.650075 9.30533 142 115 98
2.59623 -0.721339 9.2641 27 8 4
2.27391 -0.750044 9.54671 62 30 14
1.06805 -0.778835 9.79391 149 130 104
2.51919 0.0727793 9.51448 183 148 144
0.710886 -0.00327702 9.91442 196 143 119
1.43707 0.155008 9.07549 95 78 71
2.417 -0.0350641 9.50936 138 101 88
2.22306 -0.133455 9.77121 170 141 122
0.812612 -1.0438 9.78226 130 82 56
2.74801 -0.901893 9.3353 95 82 67
1.5533 0.321635 9.20665 152 34 30
2.73735 -0.637329 9.25304 31 14 8
-0.130145 -0.905273 9.54998 118 68 52
2.67805 -0.529053 9.28939 32 10 6
-0.222516 -1.06659 9.42305 170 124 96
2.73099 -0.0450463 9.40208 178 152 146
-0.111884 -0.828684 9.6337 105 48 28
2.27275 -1.09233 9.12251 111 75 51
0.0275555 -1.03117 9.53246 104 39 21
1.04867 -1.05659 9.79449 78 63 24
-0.334174 -0.573483 9.73212 102 64 41
2.18233 -1.36941 9.30035 142 118 97
0.984315 -0.646144 9.90928 88 52 25
2.67131 -0.005262 9.42481 137 98 78
2.45806 -0.0161156 9.51949 132 90 74
-0.300289 -0.634343 9.69181 164 106 86
2.30267 -0.0543706 9.66113 169 139 132
2.65352 -0.469835 9.31439 181 154 140
2.25155 -1.19121 9.00544 116 80 64
1.22396 0.141056 9.09685 108 93 86
2.27443 -0.186805 9.69315 148 80 56
-0.281946 -1.04139 9.46401 52 20 8
0.831465 -1.26173 9.66937 110 68 50
-0.0558393 -1.17358 9.54101 90 59 40
1.4349 0.174525 9.07251 75 60 54
1.43687 0.147185 9.06042 114 98 93
2.30325 -1.1062 9.05189 128 48 40
2.31698 0.08121 9.85157 164 140 130
-0.000482382 -1.17982 9.58318 46 28 12
0.950052 -0.76899 9.7575 116 68 48
-0.134375 -1.06351 9.48016 112 62 50
1.04116 -0.853475 9.75019 136 87 60
2.3667 -0.905042 9.59454 120 74 44
1.40506 0.221721 9.13349 132 112 104
0.918647 -0.987821 9.74452 44 13 8
0.826985 -1.13226 9.6881 140 89 72
0.69436 -0.564093 9.74968 116 68 47
2.30928 0.123737 9.79407 140 106 90
0.981258 0.0886082 9.30098 98 70 60
1.18639 0.108128 9.14116 143 40 36
0.804319 -1.30556 9.66156 116 76 56
0.668196 -1.31326 9.70279 133 88 72
2.26482 -1.14755 9.09429 103 75 64
2.2663 -1.1349 9.09746 104 76 64
2.35831 -1.07278 9.01922 174 124 116
2.27607 -1.08933 9.10255 126 90 73
2.28072 -1.07725 9.10737 176 139 118
0.803071 -1.21867 9.68142 123 74 62
2.51915 -1.02199 8.91716 154 133 124
-0.135588 -0.988865 9.47611 121 70 56
0.672325 -1.07489 9.89369 72 28 8
0.866949 -1.01733 9.78145 128 78 62
0.651764 -1.03201 9.88737 158 112 78
0.0656243 -0.977995 9.63012 163 141 102
2.61382 -0.857392 9.45222 119 104 90
2.59385 -0.859301 9.5238 61 52 23
2.31436 -0.737629 9.37016 125 112 90
1.06522 -0.782493 9.80512 143 124 104
2.28194 -0.737573 9.54643 76 44 28
-0.346568 -0.717292 9.72506 205 150 111
2.38304 -0.657194 9.60525 51 15 2
0.983698 -0.692841 9.85112 34 7 2
2.73545 -0.590571 9.26807 104 74 70
-0.35556 -0.66105 9.71959 165 134 110
0.565548 -0.591728 9.4824 97 50 33
2.65057 -0.532947 9.3044 165 134 118
0.516762 -0.537922 9.42576 144 91 77
2.62165 -0.498815 9.28667 97 59 48
2.30792 -0.492384 9.77137 42 23 6
2.29748 -0.483638 9.76108 56 40 22
2.34543 -0.471833 9.73407 36 17 3
2.36226 -0.443212 9.82894 82 44 21
2.93908 -0.393714 9.48665 60 36 17
2.50896 -0.363368 9.52173 42 25 18
2.95159 -0.275308 9.46117 65 48 35
2.26288 0.0301651 9.78201 36 18 7
1.34286 0.0472995 9.01687 44 24 16
2.49093 0.124278 9.54045 101 60 60
0.96635 0.113346 9.3457 190 170 164
-0.200054 0.137469 9.85112 197 146 118
1.25292 0.179384 9.08387 77 58 50
1.2313 0.202858 9.09198 62 40 34
1.24505 0.203599 9.095 64 39 30
1.19268 0.388164 9.37179 130 102 94
1.19666 0.386401 9.33898 162 138 132
1.33129 0.435915 9.34074 110 86 88
1.28897 0.444948 9.33486 126 97 94
2.29471 -0.463722 9.8883 50 33 16
-0.315545 -0.562387 9.75341 162 140 120
0.315356 -0.5436 9.36411 98 49 28
2.6414 -0.528761 9.31844 175 150 140
-0.354112 -0.880405 9.67364 126 110 78
1.07754 -0.903569 9.82624 47 20 5
2.61048 0.186729 9.48201 29 12 9
2.52882 -0.847373 9.66995 72 44 16
1.24273 0.183021 9.08597 39 22 15
1.21771 0.159952 9.09269 139 122 116
1.04088 -0.779351 9.80089 34 11 3
1.03599 -1.09262 9.79258 80 63 27
2.32636 -1.15911 8.91406 142 106 90
-0.249314 -1.00803 9.46489 165 116 96
2.3374 -0.897588 9.68779 136 116 76
-0.374404 -0.803469 9.66217 102 78 48
2.42131 -0.042876 9.47076 154 118 103
1.26397 0.10844 9.10967 154 118 116
0.823141 -1.01542 9.77629 92 46 23
1.3482 0.424988 9.34309 58 28 26
0.274638 -0.531836 9.58547 130 76 60
-0.133805 -1.02891 9.47704 176 117 98
1.03608 -0.954804 9.75308 140 92 66
1.14 0.408418 9.37141 74 40 31
0.333336 0.0543725 9.90866 57 19 11
1.35809 0.410894 9.38679 55 25 22
0.671414 -0.756352 9.97281 104 62 32
-0.0582764 -1.17385 9.54435 104 71 52
0.63452 -1.2086 9.68777 77 18 4
0.642089 -1.02152 9.88296 173 127 92
0.993932 -0.938829 9.76519 151 102 82
-0.346988 -0.878867 9.68408 142 118 100
2.35574 -0.801792 9.55687 122 87 68
0.996052 -0.704238 9.82511 65 24 8
2.33175 -0.672282 9.63785 180 146 127
-0.242272 -0.57281 9.70977 135 86 68
2.66676 -0.501499 9.2825 121 87 74
2.3399 -0.473742 9.69073 128 102 89
2.39766 -0.473827 9.72602 48 24 6
2.32075 -0.463048 9.8509 104 79 64
2.3 0.0447043 9.80509 144 128 118
2.90391 0.180176 9.50437 175 148 137
-0.431656 -0.0665311 9.00497 23 20 36
2.77264 0.0916063 9.43759 139 72 63
2.51613 0.151604 9.5299 154 124 120
2.5786 0.170244 9.52252 138 105 103
-0.333178 0.0924355 9.12483 124 28 24
-0.344938 0.105588 9.16701 120 39 33
-0.451149 -0.375772 8.73192 136 68 70
2.29066 -1.34988 9.1419 150 126 104
1.24561 0.145206 9.08326 79 68 64
2.63701 -0.030838 9.42062 168 136 126
-0.517074 -0.0105358 8.92204 80 72 80
-0.269277 -1.11447 9.61206 150 100 77
2.54848 -1.16694 8.75989 237 215 208
2.5549 -1.15989 8.7435 242 224 220
2.53748 -1.16857 8.78069 238 223 211
2.59059 -1.13834 8.68545 208 188 183
2.59692 -1.12772 8.6877 241 234 230
2.63533 -1.17393 8.83736 162 142 134
2.24992 -1.18458 8.99601 107 70 50
2.19981 -1.23091 9.25385 96 82 65
2.34949 -1.16145 9.01736 150 100 76
2.19581 -1.16848 9.07192 111 96 80
2.25188 -1.28221 9.48445 92 80 58
2.53304 -1.06974 8.79005 223 200 190
2.55275 -1.06892 8.81196 84 63 55
2.2327 -1.16244 9.16407 103 84 74
2.57694 -1.08599 8.90229 150 126 115
2.56442 -1.06304 8.8234 184 166 162
2.24196 -1.1586 9.19158 87 68 60
2.5581 -1.05371 8.81755 88 69 62
2.70072 -1.07487 8.88585 254 245 244
2.61924 -1.08676 8.94233 131 110 100
2.62865 -1.0439 8.80032 146 128 125
2.73412 -1.14481 9.16479 76 50 40
2.21428 -1.18562 9.36813 154 122 94
2.67675 -1.02598 8.8403 210 193 188
2.57261 -1.02208 8.8385 164 148 142
-0.0121894 -1.17301 9.58498 99 72 50
2.62622 -0.980766 8.79815 206 190 184
-0.0110442 -1.16362 9.60198 126 94 73
0.0124906 -1.17039 9.66159 85 57 20
0.00956198 -1.14848 9.58818 131 98 68
-0.00527861 -1.13962 9.62392 75 39 20
2.36528 -1.01719 9.08865 204 168 144
2.57198 -1.06159 9.41853 168 148 110
2.4673 -1.0907 9.60315 90 48 15
2.52156 -1.10234 9.67174 86 50 12
2.46421 -1.08713 9.62392 172 138 99
2.45144 -1.07548 9.62083 157 124 82
0.656565 -1.06748 9.85943 156 136 93
3.11774 -1.01038 9.66263 114 100 95
2.43183 -1.01671 9.71446 134 109 64
3.06377 -0.972749 9.54164 29 12 8
3.08592 -0.957582 9.52924 71 38 20
2.41901 -0.966268 9.67284 163 140 102
2.77172 -0.912273 9.40953 158 128 114
2.73731 -0.892069 9.32277 91 79 66
2.6137 -0.895532 9.4419 125 114 98
2.47264 -0.962865 9.82058 176 153 114
2.69599 -0.854206 9.25123 158 124 113
2.58347 -0.886645 9.48188 77 76 51
2.59138 -0.821331 9.19363 182 100 76
2.34726 -0.882269 9.60032 91 32 10
2.37256 -0.877171 9.58476 178 134 111
2.63158 -0.833352 9.37734 211 185 174
2.70304 -0.789893 9.1501 193 139 114
2.28918 -0.858708 9.53799 100 65 34
2.57244 -0.799738 9.2441 111 40 30
2.57573 -0.877999 9.7669 164 148 114
2.61621 -0.829932 9.49686 135 120 104
2.58895 -0.787937 9.25784 110 24 12
2.58586 -0.77086 9.18699 146 55 28
0.469007 -0.961783 10.3212 90 69 28
2.56175 -0.854969 9.71902 62 44 7
2.66061 -0.815131 9.49385 100 83 66
2.65309 -0.740105 9.14009 100 37 15
2.58496 -0.845349 9.76958 142 138 99
0.30607 -0.860198 10.0594 94 68 31
2.61139 -0.726332 9.2702 60 10 4
2.58764 -0.784629 9.77096 127 133 94
2.91542 -0.701101 9.25428 181 132 106
2.47934 -0.730658 9.54362 82 88 51
2.57779 -0.688963 9.29099 46 26 18
2.62035 -0.683562 9.26051 98 89 88
2.95653 -0.673886 9.22571 91 74 62
0.56664 -0.706633 9.51665 161 118 88
2.60951 -0.657842 9.25282 117 108 106
2.36718 -0.670131 9.59915 112 78 63
2.63537 -0.610214 9.27295 98 92 94
2.78692 -0.571242 9.27001 84 33 18
2.60896 -0.591516 9.64063 90 74 54
2.52757 -0.606257 9.80248 48 32 10
0.556731 -0.583498 9.47812 163 112 95
0.191171 -0.582375 9.48789 82 38 15
2.84379 -0.546108 9.40806 62 34 28
2.34695 -0.594587 9.85925 215 187 164
2.80524 -0.530141 9.32784 132 108 100
2.80471 -0.522395 9.29137 110 70 59
2.87674 -0.524191 9.30167 72 30 8
2.53794 -0.526116 9.34014 108 51 22
3.0282 -0.520093 9.45905 166 138 113
2.5308 -0.5055 9.28575 72 20 4
2.74845 -0.494673 9.25523 98 71 64
2.66935 -0.49104 9.3009 92 50 29
2.63125 -0.487409 9.31258 74 32 14
2.31522 -0.508324 9.71605 92 70 38
2.25541 -0.484354 9.76615 151 126 102
2.29418 -0.48509 9.78836 50 30 22
2.40022 -0.467312 9.77376 116 98 84
2.74556 -0.432413 9.33352 84 42 20
2.25777 -0.465904 9.76595 152 128 110
2.28666 -0.460503 9.80465 34 14 6
2.31345 -0.459424 9.79385 33 16 4
2.31827 -0.438593 9.80665 60 42 25
2.86433 -0.37578 9.22654 102 83 57
-0.431641 -0.369897 8.80507 62 26 26
0.4187 -0.424499 10.1264 128 108 88
2.67685 -0.346537 9.4124 53 32 20
-0.598671 -0.346455 8.66994 106 58 52
2.66236 -0.340337 9.40954 163 138 127
2.85404 -0.345049 9.49777 40 20 9
2.65101 -0.323382 9.39531 65 46 38
2.70504 -0.318974 9.42957 128 106 96
2.63261 -0.32344 9.64504 123 94 76
2.62752 -0.302841 9.40543 40 22 8
2.93659 -0.299998 9.44648 59 36 14
2.5446 -0.300324 9.52963 155 130 118
2.64221 -0.263121 9.51043 96 62 40
1.37375 -0.175511 9.19361 157 116 92
2.68886 -0.0556303 9.39065 198 154 134
2.68622 -0.0369681 9.38007 98 52 30
3.05452 0.0398824 9.46913 64 42 31
-0.440272 -0.0582615 8.9664 90 85 95
2.52889 0.0452121 9.45902 150 114 96
2.51172 0.0550883 9.45201 127 86 68
1.08321 0.0733 9.21342 214 190 180
1.38701 0.0694451 9.0322 64 47 32
0.975488 0.0744823 9.22818 157 132 120
2.89673 0.156946 9.49143 96 80 72
0.974595 0.109223 9.3285 150 127 122
1.10909 0.109908 9.27478 153 106 96
1.34242 0.109104 9.06217 54 38 23
1.48439 0.168631 9.09463 107 91 86
