ply
format ascii 1.0
element vertex 1356
property float x
property float y
property float z
property uchar red
property uchar green
property uchar blue
end_header
4.41079 0.711533 14.0091 45 16 4
4.8897 0.743167 13.6712 44 25 14
4.83089 0.799569 13.6739 42 21 7
4.87615 0.871446 13.7967 163 138 122
5.74439 1.04351 14.0439 97 46 28
4.79928 1.04227 14.0979 108 77 58
6.82147 1.09112 14.686 130 83 56
4.6934 1.14 14.2289 96 56 32
5.2932 1.12815 13.8957 122 104 88
4.15166 1.16465 14.4157 118 94 76
4.88611 1.29715 14.1775 178 138 114
3.29758 1.41304 14.6563 172 142 126
3.2845 1.49277 14.6154 150 62 34
3.33176 1.64052 14.5919 166 67 42
0.143626 1.46796 12.5116 122 70 54
4.66012 1.7503 13.6358 184 140 118
3.52876 1.81599 14.4671 176 147 137
5.81639 1.82875 13.5948 150 96 78
4.9933 1.82859 13.5753 108 60 38
5.75948 1.88601 13.5964 186 156 138
4.9729 1.91488 13.5862 167 130 116
5.77929 1.96649 13.7268 148 118 100
5.9005 2.01362 13.6728 148 72 48
-2.47753 2.00995 15.1343 176 122 99
6.39694 2.07534 13.9202 104 72 55
5.6723 2.04815 13.6082 142 108 94
5.57544 2.05168 13.5949 184 158 141
6.25044 2.10188 13.9057 44 23 15
5.81846 2.1452 13.7382 190 162 140
4.39843 2.19698 13.8701 147 98 78
5.86651 2.24739 13.8577 52 22 10
4.54679 2.23473 13.8353 88 102 87
6.40316 2.41798 14.2688 186 160 142
3.52277 2.43796 14.9684 173 146 136
-0.00724428 2.04664 12.0298 94 84 70
4.66639 2.36102 13.7418 102 64 46
4.8086 2.41674 13.7504 126 50 48
4.28432 2.51881 14.0434 53 18 14
1.13052 2.27815 12.6196 80 64 53
-1.23004 2.33419 13.037 200 181 176
5.6644 2.61784 13.908 180 152 142
0.160674 2.2749 12.1076 48 34 18
4.55978 2.64693 13.8867 175 147 141
3.55607 -4.00408 14.3654 99 71 31
3.2657 -3.75342 14.206 149 142 94
3.23217 -3.5743 14.0022 108 68 30
3.19858 -3.34706 13.8646 106 68 32
4.60851 -2.55856 11.8062 158 110 85
-1.89112 -3.08282 14.6448 44 29 8
-2.09059 -3.04631 14.5473 50 30 10
-1.7031 -3.06634 14.7935 62 42 18
-1.5142 -2.99982 14.8856 58 40 15
-1.6527 -2.79223 14.6174 31 16 6
-1.99829 -2.69086 14.4515 40 18 8
-2.10822 -2.60717 14.5134 168 112 88
-1.86295 -2.43631 14.4864 41 12 8
-2.77824 -2.50394 15.0388 144 140 90
-2.57663 -2.46516 14.8376 170 110 86
-1.76634 -2.40089 14.4972 28 10 5
-1.64634 -2.36579 14.5218 124 79 62
4.89 -1.88341 12.3415 112 93 84
-5.40966 -2.16765 13.4597 162 113 88
-4.94659 -2.21751 13.8637 138 88 62
-2.03662 -2.2951 14.3188 170 101 78
-5.11721 -2.12401 13.554 40 22 13
-5.0293 -2.08595 13.6466 156 102 79
-1.67064 -2.22681 14.5406 36 15 9
-1.47162 -2.21919 14.7691 85 51 36
-4.80573 -1.99527 13.8291 42 8 0
-4.69971 -1.98217 13.8833 165 111 88
-5.16106 -1.91631 13.5669 172 115 94
-2.31111 -1.99604 14.3834 193 135 112
-4.8517 -1.85295 13.6854 180 122 101
-5.30453 -1.80192 13.506 40 14 10
-1.32946 -1.86066 14.6978 35 14 6
-5.03069 -1.65202 13.6351 58 12 6
4.07929 -1.60736 14.4956 89 36 15
-1.11816 -1.64219 14.9858 26 6 0
-0.963443 -1.66206 15.0053 142 140 89
-1.80286 -1.61479 14.8489 82 36 18
-1.51867 -1.52975 14.912 51 16 10
-0.868241 -1.4943 14.8152 92 68 25
3.96725 -1.39787 14.6297 93 43 14
-4.7983 -1.3836 14.192 124 72 52
-1.01515 -1.39418 14.8287 137 90 64
6.57249 -1.31224 14.7749 154 148 102
-1.24646 -1.36055 14.816 154 104 86
4.10906 -1.06997 14.6087 126 38 24
4.74329 -0.863406 13.0743 191 104 77
-4.40938 -1.11032 14.51 91 56 24
-4.72118 -1.07307 14.1516 96 48 24
-4.99929 -1.05114 14.2404 114 61 36
-4.59679 -1.00015 14.2463 151 108 88
-0.960366 -0.993683 14.7219 158 112 86
-4.71421 -0.946595 14.2181 158 110 89
5.30305 -0.72708 13.2569 136 85 66
3.67298 -0.831857 14.2647 106 70 51
-1.42489 -0.923558 14.8248 48 14 8
4.77907 -0.662504 13.1703 170 71 38
-3.52036 -0.924939 15.0658 106 86 46
4.70985 -0.625711 13.352 28 14 15
-4.72602 -0.791344 14.1805 112 66 43
4.86916 -0.54495 13.3314 18 12 11
4.65864 -0.526282 13.4038 20 12 10
-1.32731 -0.706187 14.8647 182 128 104
-5.67414 -0.613746 14.145 106 63 40
-5.49257 -0.54625 14.1951 38 8 4
5.47178 -0.33424 13.3395 172 104 70
5.37399 -0.307023 13.3409 76 22 4
-4.44035 -0.44901 14.1384 90 46 26
-2.55971 -0.360231 14.0993 72 26 10
5.73966 -0.223962 13.4259 180 153 134
-2.37784 -0.311858 13.9067 160 106 78
-2.14434 -0.326697 14.0896 174 132 115
3.7724 -0.244757 14.6156 158 126 106
4.87539 -0.133049 13.3755 20 16 21
-5.47468 -0.31489 14.2394 37 6 0
-2.73807 -0.199869 13.5793 74 30 11
5.10853 -0.0447732 13.2672 94 70 69
-1.43152 -0.202892 15.295 88 43 25
4.66442 -0.132351 15.8593 35 16 1
5.43556 0.00563686 13.366 68 28 20
-2.38746 -0.118467 13.94 74 24 6
-2.75163 -0.0909753 13.4818 168 116 101
-2.28687 -0.108586 14.0215 144 99 80
4.51309 -0.103372 15.8736 162 152 130
5.09448 0.0357214 13.1216 100 74 76
4.82793 0.055459 13.2731 158 118 102
-2.86441 -0.050733 13.4415 74 24 16
4.96937 0.132569 13.279 27 9 4
5.38328 0.15532 13.4305 54 26 18
4.55624 0.157426 13.4757 56 13 1
-2.48992 0.0531032 13.9406 146 92 76
-5.93388 0.0202273 14.4028 156 141 121
4.35614 0.15019 15.7382 120 108 76
3.46683 0.173867 15.0033 161 132 109
4.57739 0.294452 13.6233 180 142 118
3.64932 0.256214 14.637 165 134 111
4.4374 0.359844 13.5446 168 98 64
3.41638 0.353749 15.0697 178 150 132
3.85561 0.407061 15.0006 29 18 6
-3.59515 0.326153 13.1765 169 114 98
4.53304 0.51794 13.5615 190 158 133
-2.19231 0.431736 15.0635 192 144 122
4.80023 0.556905 13.5948 138 113 100
5.81179 0.61354 14.0491 33 14 4
3.25893 0.578125 15.6478 126 79 52
5.05654 0.660655 13.8791 131 110 96
3.37832 0.668021 15.4538 148 94 64
-5.4091 0.552945 12.651 126 14 12
4.77651 0.710715 13.6515 184 157 137
3.93353 0.726231 14.9896 94 52 28
-5.50193 0.606279 12.2616 127 14 12
4.41138 0.832707 13.9959 160 132 116
4.31678 0.871133 14.1413 19 15 14
5.37993 0.917373 13.9652 114 72 52
4.10996 1.03215 14.5355 94 82 62
4.77817 1.1358 14.0452 164 129 106
5.76817 1.17954 14.1108 198 178 166
5.38639 1.17724 13.8436 181 156 141
3.37826 1.25041 14.6082 170 142 129
5.80099 1.27916 13.969 108 80 61
3.41783 1.39408 14.5607 155 73 46
4.6911 1.47942 13.53 100 56 26
4.57159 1.6305 13.5702 99 53 28
3.3935 1.73892 14.6093 140 19 20
3.99005 1.71977 13.8918 178 146 139
0.0912907 1.56782 12.5039 74 17 6
4.26187 1.77345 13.8592 194 172 166
5.61891 1.80548 13.5743 142 105 89
4.52706 1.79436 13.5394 142 92 70
-4.98338 1.75508 14.6413 134 83 63
3.28155 1.95211 14.9276 92 49 42
-3.67897 1.84931 14.728 140 93 72
4.895 1.9523 13.6273 134 90 69
-3.76988 1.95512 14.6991 92 44 17
5.83838 2.08838 13.6673 188 160 142
-2.37641 2.13678 15.1412 124 72 42
3.50582 2.2576 14.8955 169 144 135
-3.78601 2.0421 14.4221 148 102 82
-3.26889 2.17366 15.3359 52 14 4
-2.17136 2.18202 15.1132 114 59 29
-3.00821 2.22504 15.3265 172 121 96
4.3111 2.21477 13.9054 181 154 147
-4.12585 2.19305 14.4572 190 134 101
-3.79983 2.20707 14.527 56 18 12
-2.25123 2.32307 15.014 222 167 130
5.80242 2.36353 13.8391 190 163 140
-4.00469 2.25234 14.4897 83 35 18
-5.8097 2.27458 14.8854 142 94 68
-2.39697 2.37933 15.0017 136 83 54
0.280598 2.05743 11.984 90 87 70
-3.01623 2.41482 15.2582 166 132 122
0.0738117 2.06148 12.002 90 86 70
5.76479 2.42823 13.8424 200 174 152
-2.0372 2.46792 15.2619 122 72 42
4.5926 2.46487 13.7936 190 148 93
4.69689 2.47353 13.758 190 146 98
5.6924 2.52063 13.8683 40 30 26
-4.06301 2.47731 14.6946 150 102 81
4.43132 2.57651 13.9712 32 16 14
4.31199 2.59363 13.9872 173 149 143
3.90301 2.6725 14.5321 179 148 138
-3.56166 2.54714 14.7208 75 38 26
3.794 2.71908 14.589 106 60 41
1.39756 2.517 13.1353 150 132 120
5.70593 2.78512 14.0446 164 140 134
0.166187 2.43341 12.2536 154 26 24
4.98771 2.84779 13.9806 181 160 156
0.755273 2.52742 12.3181 146 122 123
-0.221792 2.56554 12.1901 30 10 3
0.901645 3.06694 12.6863 160 32 28
0.206486 3.35624 13.266 50 18 16
4.36472 -1.47327 14.6999 158 154 103
-1.28798 1.1631 15.4502 130 85 67
4.135 1.69068 13.9307 146 98 78
-2.06583 -1.73442 14.8655 74 20 9
-1.12532 -1.25967 14.7853 32 10 4
4.79734 -0.28474 15.7628 162 150 128
3.50511 1.66479 14.5748 179 148 138
-3.04514 1.86989 15.4246 160 104 81
3.67207 1.94846 14.3635 176 148 140
-1.42015 2.03133 15.1352 156 110 90
3.22195 -3.56478 13.9512 108 69 30
3.99115 -2.36054 11.8117 165 139 130
-2.32592 -3.04978 14.8953 55 34 18
-1.91814 -3.02554 15.1254 38 20 8
-1.52175 -2.98758 14.863 52 34 10
4.46271 -2.11558 11.7773 166 138 130
-1.63975 -2.78279 14.5423 28 13 3
-2.00737 -2.70924 14.4737 46 20 12
-2.62775 -2.59585 14.8768 52 22 9
-1.33546 -2.43017 14.5323 29 13 2
-5.04373 -2.26217 13.6799 45 24 12
-2.22511 -2.37874 14.4937 74 24 4
-2.69132 -2.40226 15.0863 34 10 1
-5.11046 -2.10009 13.508 43 22 12
-2.29444 -2.19534 14.387 176 110 83
-1.66695 -2.23151 14.5389 36 15 9
-5.35683 -2.03661 13.4796 30 12 6
-1.79962 -2.16478 14.5653 144 94 76
-5.25644 -1.97473 13.458 35 12 8
-1.55525 -2.14888 14.5687 87 51 32
-4.7865 -1.99089 13.7755 40 8 0
-5.15156 -1.90716 13.5628 170 113 92
-1.80335 -2.03477 14.611 134 82 64
-4.94817 -1.74964 13.6321 74 24 11
-5.36293 -1.70276 13.5228 29 10 6
-1.99505 -1.88663 14.7704 140 80 56
-5.65531 -1.6709 13.5167 150 106 81
-2.23173 -1.85254 14.9514 155 92 70
-2.52937 -1.78904 15.2085 146 138 92
-1.43509 -1.71543 14.9886 137 86 71
-1.91419 -1.68306 14.9095 146 95 72
-0.943 -1.6706 15.0045 143 142 89
-5.16782 -1.49297 13.7063 178 114 90
-1.12829 -1.62892 14.9602 25 7 2
-1.27491 -1.62143 14.9242 22 6 2
-1.50451 -1.52973 14.9271 46 15 10
5.48682 -1.24902 13.9843 158 138 127
-2.4244 -1.45146 15.0745 172 125 92
-0.831413 -1.36628 14.8617 84 64 26
-1.44821 -1.21547 14.8872 66 22 15
-0.812076 -1.2102 14.8825 132 130 82
-2.69839 -1.25461 15.3471 168 122 90
-5.17743 -1.10165 14.23 201 142 114
-4.41633 -1.12304 14.5018 91 56 24
5.13378 -0.815699 13.1338 92 35 15
-6.13035 -0.94071 14.2569 90 59 30
-4.69364 -0.942651 14.2399 160 114 92
-5.98518 -0.927662 14.2579 166 110 83
5.26986 -0.694921 13.2232 133 82 62
-1.42189 -0.910494 14.7907 48 14 8
-2.31552 -0.854298 14.2733 136 86 60
-5.53881 -0.807024 14.2641 40 12 8
-3.72129 -0.937997 15.8545 88 54 20
3.71685 -0.658301 14.3818 161 129 108
5.09111 -0.526047 13.308 23 13 12
-1.67205 -0.712459 14.6403 138 96 78
1.47808 -1.35899 23.1434 77 78 38
3.83618 -0.499803 14.603 160 129 108
-1.04655 -0.544594 15.067 100 66 40
-4.57873 -0.479574 13.9391 134 95 71
-2.33116 -0.458812 13.9971 104 62 35
-1.29332 -0.483746 15.0729 28 8 2
-4.62937 -0.331842 13.7183 104 58 32
-1.12147 -0.38854 15.1923 156 146 122
-6.13451 -0.350338 14.3007 160 142 118
-2.37024 -0.300394 13.937 159 108 81
3.80233 -0.224555 14.683 158 126 106
4.90474 -0.130167 13.4419 21 16 20
4.70002 0.0500821 13.5757 180 151 134
-4.62367 -0.0532369 13.5006 140 93 75
3.66589 -0.00986041 14.7379 169 136 116
-4.16301 -2.45262e-05 13.3901 156 96 70
-2.48906 0.0122875 13.9208 148 96 80
-5.94381 0.0364178 14.3814 156 142 121
-4.05583 0.154562 13.0758 193 135 114
-3.60166 0.332266 13.2149 168 114 98
4.80594 0.551554 13.5789 139 115 102
-2.1927 0.44995 15.0857 192 144 121
3.63536 0.554287 15.1738 144 117 92
-2.6436 0.476808 15.2074 184 136 112
3.36625 0.665062 15.474 146 91 62
3.93956 0.738484 14.9974 96 55 32
-2.68532 0.648593 15.3543 190 144 119
-5.51488 0.606925 12.3342 128 12 12
-2.21023 0.749415 15.0436 202 157 134
5.22741 0.992007 13.8833 169 144 127
5.74048 1.17773 14.082 190 170 158
4.77927 1.16435 13.8163 175 140 118
4.25342 1.2598 14.3798 150 124 110
3.35815 1.25181 14.6265 170 142 129
-4.81776 1.14511 14.3637 179 132 110
5.13521 1.36415 14.3288 142 96 78
4.71653 1.48921 13.6 101 56 26
-2.60782 1.51663 15.4449 205 162 138
3.37339 1.74413 14.6152 138 10 12
4.01254 1.72333 14.0431 176 146 138
-5.04876 1.5974 14.6641 166 118 99
0.0775064 1.57029 12.4405 76 20 8
4.27447 1.79443 13.8697 184 162 154
-0.397 1.62268 12.18 25 14 12
-4.95354 1.76823 14.5707 132 80 60
5.69255 1.91595 13.6028 185 156 139
-3.68967 1.83209 14.7132 139 92 72
4.12684 1.90187 13.9456 140 96 78
-2.81844 1.97953 15.3033 176 122 98
3.56855 2.04579 14.3666 103 76 78
-3.76196 1.93762 14.623 92 44 18
-2.18577 2.07433 15.4476 194 146 123
-4.15839 1.95135 14.5875 157 107 88
5.82502 2.07547 13.6549 186 158 140
-3.86068 2.07754 14.6366 150 104 84
5.86109 2.23414 13.7924 55 24 12
-4.27132 2.11418 14.5057 90 44 23
-5.56866 2.1498 14.8045 189 142 120
-4.14084 2.2027 14.4979 186 130 98
-3.79384 2.21003 14.5149 54 18 11
-2.60529 2.31461 15.1413 222 170 132
0.976873 2.05685 12.4134 143 46 40
-3.58044 2.29596 14.9458 41 12 6
-3.28777 2.34212 15.3322 125 95 86
-2.24343 2.3216 15.0394 224 168 131
-5.29615 2.23204 14.5769 161 110 88
-3.98971 2.25343 14.499 80 32 14
4.44911 2.34637 13.7629 132 18 20
-5.56977 2.28175 14.7362 174 125 102
-2.4133 2.38886 15.0253 134 81 52
-4.25338 2.30882 14.5312 148 91 62
3.31801 2.58121 15.0786 156 132 122
4.6316 2.47035 13.8175 191 149 90
5.92248 2.54673 13.9212 180 145 108
-0.159811 2.16025 12.051 137 20 16
-5.43496 2.41967 14.6616 108 60 30
4.43903 2.56928 13.9692 34 16 14
-4.06165 2.48688 14.7229 154 106 85
-4.3265 2.52903 14.7275 53 21 12
3.78617 2.72326 14.5855 106 62 44
-4.84334 2.54453 14.6513 100 54 34
-3.90167 2.66124 14.9407 92 48 33
-5.40576 2.61176 14.6576 110 64 34
-5.95149 2.22789 12.1554 120 20 14
4.8381 2.75628 13.8286 182 161 156
5.98036 2.85857 14.237 130 96 82
4.35798 2.89965 14.3096 122 78 56
-6.12046 3.0529 12.7296 121 16 14
0.191538 3.36941 13.2251 50 18 16
-2.01078 -2.51088 14.4281 156 99 76
-1.88923 -2.29091 14.4976 150 92 70
-1.64427 -1.98805 14.6469 40 18 11
-1.2501 -1.97521 15.1932 43 23 11
-1.67648 -1.33569 14.7025 140 96 74
-5.03286 -1.19976 14.2822 54 15 4
-4.73683 -1.20085 14.2744 132 86 63
-1.21594 -1.17672 14.7514 31 10 6
-5.98074 -1.08346 14.2653 61 24 15
-1.59496 -0.90868 14.7115 128 84 66
4.62109 -0.401432 13.4489 150 120 106
-5.36515 -0.46815 14.2486 162 112 89
-1.44563 -0.210436 15.4288 88 43 25
-3.60719 -0.0409315 13.1508 119 68 46
4.98199 0.946337 13.8108 22 16 12
-1.29265 1.15911 15.4656 130 85 67
-1.1987 1.37316 15.517 130 82 66
5.54908 1.44508 13.7834 144 114 101
5.1603 1.49925 13.953 158 127 116
4.2287 1.56056 13.8274 99 54 23
3.53062 1.77377 14.5602 177 149 138
-3.04474 1.80655 15.4009 168 114 90
3.54656 1.91099 14.3708 102 72 73
5.07501 1.9418 13.6228 150 108 90
-2.74887 2.19317 15.2306 112 60 30
3.47363 2.35516 14.9932 164 140 127
4.77214 2.32882 13.7214 92 110 98
4.27125 2.36455 13.9932 122 54 60
-3.4284 2.42137 15.058 120 92 83
-3.56903 2.5375 14.7772 74 38 26
4.55224 2.8711 13.9455 137 92 74
4.85543 2.95648 14.0048 131 94 82
0.137354 3.45147 13.1176 53 22 18
-0.276307 3.57144 13.177 81 44 36
-6.27178 3.84089 12.7697 144 70 72
-2.38178 -2.60823 14.7429 180 120 95
-5.69183 -2.30955 13.5523 62 34 14
-1.89344 -2.21589 14.5333 153 96 76
-1.29426 -2.00532 15.1803 40 22 10
-2.35624 -1.74421 15.1319 76 27 14
-1.49159 -1.51962 14.9355 47 16 9
4.39811 -1.44347 14.7128 154 154 100
-1.4167 -1.20556 14.8609 57 17 10
-1.22687 -1.02932 14.9816 178 128 106
-4.64051 -0.919212 14.2958 158 114 96
-1.41004 -0.890574 14.7985 46 14 7
-6.00737 -0.762399 14.3195 32 10 7
-1.70993 -0.725117 14.6271 147 107 90
-1.47514 -0.55753 14.7422 42 14 10
-5.54578 -0.516275 14.1639 36 9 6
-1.32848 -0.48374 15.1048 26 6 3
3.63904 -0.341537 14.8498 74 32 12
-1.10198 -0.368134 15.4406 156 146 123
-5.51255 -0.247655 14.1817 38 6 2
-4.4691 -0.127063 13.5886 85 42 18
4.63591 0.0165645 13.2728 178 151 134
4.05454 0.0372132 15.17 82 47 22
4.62707 0.359369 13.4992 190 160 138
-1.36008 0.308772 15.4354 171 130 112
5.14138 0.479744 13.94 112 82 64
3.65404 0.569152 14.9519 150 118 100
4.39016 0.542833 15.5752 74 45 18
-2.64081 0.529577 15.1999 186 138 115
-5.37561 0.592521 12.5886 130 14 16
4.31042 0.79309 14.1275 19 13 10
-3.33171 0.698966 15.6087 56 18 10
3.05656 0.810263 15.561 152 142 116
5.09558 1.1511 13.8687 176 146 134
-1.33307 1.14803 15.4438 130 84 66
4.45165 1.60926 13.3948 100 55 30
0.0541482 1.5794 12.4656 92 29 18
-2.36006 1.78696 15.3097 149 93 70
4.29931 1.8139 13.8718 183 158 150
5.21603 1.83465 13.6241 180 160 157
-1.33427 1.94623 15.3271 152 112 96
4.72081 1.92108 13.6684 180 158 150
5.00727 1.9593 13.6988 155 118 100
-4.15772 1.89827 14.5997 158 110 92
-2.63773 1.99986 15.4451 186 135 112
-2.15763 2.01352 15.3162 193 146 122
5.265 2.08215 13.6418 182 160 154
3.28293 2.37108 15.1169 89 52 34
4.75485 2.33376 13.7356 89 109 97
-3.62414 2.33626 14.9467 49 20 12
-4.77643 2.32006 14.871 90 42 20
4.30135 2.41878 14.0465 122 46 49
-3.59843 2.51627 14.8538 74 37 27
-4.27338 2.51346 14.6709 68 28 18
-5.383 2.61408 14.7081 112 64 38
4.91142 2.74048 13.8889 180 159 154
4.61988 2.96365 14.2623 128 84 64
-0.378228 3.28589 13.1197 154 137 132
-5.82919 -1.7319 13.9372 151 107 82
4.91073 -0.149918 13.3796 20 18 23
-1.85178 -2.08386 14.5475 144 93 74
-2.39408 -0.491439 13.8676 100 60 30
4.11397 1.89261 14.0481 150 110 100
-2.34861 -2.92674 14.8601 60 33 18
-4.93466 -1.99156 13.5609 151 98 78
-1.92245 -2.14519 14.5138 157 96 74
-1.15081 -2.25938 15.1905 52 37 16
-5.17227 -1.80812 13.5979 171 112 92
-1.32118 -2.03599 15.1806 33 16 6
-5.44101 -1.73411 13.519 36 16 11
-1.74837 -1.83151 14.8211 36 14 8
-4.68788 -1.39096 14.3973 45 13 6
-1.73377 -1.27709 14.7189 147 105 81
-5.31648 -1.15194 14.0473 27 8 6
3.78378 -0.611726 14.4583 158 126 106
-5.27676 -0.409604 14.2629 173 126 103
-2.64416 0.583092 15.145 186 140 116
-4.38135 0.591732 14.2004 94 46 24
-3.31842 0.723726 15.5686 58 18 10
4.99751 0.9296 13.9221 22 20 16
3.56288 1.18565 14.6115 97 56 28
4.68194 1.17382 14.2258 97 59 34
4.91568 1.18328 14.0777 174 142 122
-1.31902 1.1545 15.4275 130 84 68
3.27468 1.26777 14.8151 170 144 129
4.21139 1.5582 13.9683 109 62 39
3.90925 1.65645 14.0407 177 148 138
-1.78979 1.68014 15.3893 166 118 96
4.89237 1.66663 13.4907 97 52 27
3.2906 1.77298 14.8057 122 19 17
-4.91152 1.81036 14.6728 128 77 57
-4.0992 1.81011 14.4531 160 112 95
4.64107 1.91544 13.5507 181 158 152
3.83179 2.10182 14.2763 182 156 146
-4.39744 2.13392 14.5726 106 56 36
-5.58676 2.17323 14.8795 186 140 118
-3.29953 2.45269 15.1896 138 109 102
1.45391 2.35949 13.0423 103 76 68
3.78166 2.72932 14.5759 111 68 49
-0.914155 2.53808 13.0178 157 131 114
0.0649947 3.39916 13.1087 51 16 15
-4.77342 -1.72926 13.6831 158 100 82
-3.01112 1.78445 15.4451 170 118 94
-4.8133 2.46365 14.6799 110 61 38
-1.69899 -1.82958 14.7773 26 6 2
-4.12937 0.182085 13.7603 184 126 106
-2.10456 0.589629 14.8209 194 148 124
-2.67968 0.658942 15.2852 189 142 119
4.18097 1.59514 13.9573 160 112 89
-2.77868 1.72147 15.2753 187 138 115
-3.23359 2.02717 15.2977 76 30 19
3.72336 2.33114 14.5783 178 152 143
-4.8155 2.34254 14.7227 91 42 20
-2.25438 2.52653 14.9549 166 134 122
-0.496969 2.90427 12.8026 144 28 25
0.00162548 3.35658 13.0981 48 15 12
-1.18953 -1.22097 14.8916 22 8 5
2.80063 0.789847 15.7041 152 142 118
-3.86104 1.73608 14.2586 157 110 94
-3.24218 1.98184 15.2258 78 32 20
-1.95076 -1.25489 14.6878 162 116 91
-1.79509 0.197252 14.9659 158 118 101
-4.47098 2.92 14.7818 158 131 122
-5.2639 -2.24835 13.5068 96 63 44
-5.1124 -1.55515 13.745 196 134 112
-1.69956 -1.6277 14.8919 122 73 56
4.76322 0.167474 13.2793 76 40 29
-3.5702 0.204978 13.1518 65 16 6
-6.42881 1.58688 11.3402 24 20 38
3.90283 2.35381 14.251 112 82 76
-1.07401 -2.01 15.2296 147 144 94
-5.32627 -1.1024 14.1512 36 9 3
-1.50593 -0.6639 14.834 38 10 4
-2.19061 -0.456151 14.0385 184 141 124
5.47863 1.7686 13.6296 180 156 150
-6.7003 2.25107 11.4279 28 19 30
-6.32282 3.08136 12.5099 148 81 33
-6.25063 3.7669 12.184 118 26 29
-4.84794 -2.16028 13.8781 166 114 88
-5.66446 -1.82106 13.4882 32 12 8
-5.19594 -1.69446 13.6123 177 117 98
-5.33912 -1.3988 13.6703 27 8 3
-4.82122 -1.41002 14.2836 130 76 58
-2.10535 -0.825262 14.3615 196 154 130
-5.44325 -0.727946 14.2042 54 14 7
-6.0311 -0.565224 14.2366 206 152 113
-4.16278 -0.163143 13.6518 74 32 14
4.01708 0.583515 15.2861 132 106 88
-5.80549 0.658773 12.0501 156 141 122
-5.93936 0.697578 11.9912 136 94 29
-5.44597 0.894291 12.0829 161 112 64
3.57803 1.38729 14.516 159 130 120
-6.36685 1.17446 11.186 68 2 3
3.24577 1.66595 14.6843 112 20 18
-6.15997 1.48069 11.594 78 63 65
3.4576 2.05666 14.5474 81 31 34
-6.45563 1.54874 11.301 20 16 33
-6.10575 2.24324 11.9756 79 0 2
-6.3141 2.72479 12.2766 160 104 38
3.81928 -3.04428 12.8474 116 20 10
3.70336 -2.14971 12.4482 153 122 115
-5.22864 -0.960864 14.1049 99 42 26
-5.24947 -0.699912 14.0098 159 108 84
-4.26736 2.65791 14.5419 148 118 110
-5.77064 3.55468 12.5462 130 22 19
-6.16281 3.80266 12.2686 158 126 122
-4.77807 -1.65512 13.7054 168 108 90
5.36303 -1.44772 13.7274 162 140 132
-4.87756 -0.341671 14.0607 173 127 104
-5.8036 0.628357 12.0875 156 142 121
-2.38303 2.12481 15.1868 128 74 48
-2.64046 -1.77576 15.2985 152 148 96
-5.51586 -0.795608 13.9713 34 9 5
-5.48631 0.632103 12.5789 131 13 14
-1.58811 1.33855 15.153 170 129 114
-5.99904 2.19789 12.1492 126 19 20
-6.11724 3.15703 12.7671 135 14 14
-5.03588 -2.45319 14.2765 52 32 16
-5.71395 0.586845 12.2029 156 140 116
-4.68824 1.77738 14.7011 126 76 59
-4.22669 0.0279403 13.396 158 102 81
-6.18571 0.538225 10.8476 150 136 138
-6.21188 1.40602 11.4458 96 82 86
-6.07939 2.05947 11.9055 54 26 32
-6.11588 -0.766557 14.2129 157 144 124
-6.42162 1.04836 11.2069 62 0 0
-6.49384 1.7319 11.2808 18 16 31
-6.39757 1.83014 11.4918 24 18 34
3.5627 -3.84725 14.2244 158 142 120
-5.14423 -2.5447 13.9647 54 37 12
-6.2271 1.54455 11.5036 24 21 36
3.30033 2.39194 15.1044 76 40 20
-6.19953 2.87972 12.6408 122 18 18
-2.22943 -2.6892 14.5577 53 22 10
-1.05322 -1.77972 14.9322 80 60 29
-6.31981 -0.0997072 11.1264 110 29 16
4.43884 1.42954 14.0059 147 120 108
3.89372 0.732159 14.8698 86 48 26
-5.27802 -0.947855 14.0837 98 41 21
-5.12905 -1.41541 13.7939 178 114 92
-1.37918 1.907 15.3075 154 115 100
3.4517 1.99231 14.3263 92 62 62
3.24874 2.35171 15.0334 82 45 26
3.75316 1.62144 14.7039 172 143 134
-6.1583 0.482406 10.8932 50 10 11
7.24214 0.857495 15.2152 159 142 118
6.66534 1.31199 14.5584 42 16 4
6.0527 2.23057 13.8118 180 151 138
0.00476841 2.11088 12.0099 60 44 34
1.53907 2.3564 12.9884 206 192 184
-6.71287 2.34154 11.5008 82 52 54
-6.62874 2.5039 11.7113 122 18 12
3.36077 -3.56261 13.8873 156 139 116
3.58905 -2.78514 12.5876 114 8 6
-2.39001 -2.79352 14.5662 49 21 10
6.08656 -2.26855 13.9565 236 221 220
-5.1872 -1.10302 14.28 202 144 113
-3.18522 -0.385365 13.117 170 118 92
-1.74621 -0.0891497 15.0237 150 113 98
5.56896 0.371614 13.5658 177 149 126
-4.52666 0.472128 13.5259 104 56 32
-4.21621 0.560931 13.9075 104 56 34
-5.89898 0.69495 11.9764 140 98 34
-6.10339 0.773581 11.7649 80 14 5
6.35744 1.58537 14.206 102 72 42
-5.94533 1.20301 11.6966 100 8 6
6.04248 1.7403 13.9135 173 154 148
5.1628 1.81466 13.6032 182 162 156
-2.29857 1.86066 15.053 144 87 68
6.0467 1.90569 13.7585 170 152 146
3.30364 2.21297 15.098 124 106 91
1.12033 2.16425 12.5954 152 136 118
1.37335 2.25056 13.108 152 135 119
0.403054 2.41415 12.3829 146 128 120
4.72282 2.83415 14.1031 176 154 147
-6.68901 2.92503 12.5555 148 126 112
-6.39946 -0.14213 11.0131 114 43 22
3.36855 -3.5574 13.8842 156 139 118
3.33572 -3.35372 13.7464 148 129 108
-4.76976 -2.26382 14.1928 50 29 8
-5.55681 -1.90696 13.4233 164 116 86
-1.05764 -2.00457 15.1939 150 147 96
4.05607 -1.62824 14.5369 92 37 10
4.28716 -1.37824 14.8827 78 10 4
-5.19589 -1.33252 13.835 171 108 86
-6.1673 -0.567576 14.2092 105 72 42
-4.74985 -0.342456 13.5509 169 122 100
-5.98424 -0.398864 14.3194 38 10 4
-3.77487 0.0359483 13.1537 80 28 12
-3.49826 0.113294 13.1164 62 18 10
-4.42987 0.137069 13.3763 157 103 79
-5.18853 0.267116 13.9987 58 18 12
-5.65846 0.594359 12.2827 154 140 117
-5.93927 0.906525 11.7348 150 102 39
-5.37872 0.998998 12.2153 144 14 16
-5.94593 1.21374 11.6961 97 6 4
-5.86322 1.34174 11.8433 161 144 124
5.44939 1.76587 13.586 182 160 154
-3.59798 1.9734 14.9113 94 44 22
-5.92763 1.86644 11.891 124 20 18
-5.99397 1.94058 11.802 86 56 62
3.69742 2.5482 14.5068 178 154 144
-0.827993 2.46667 13.1633 158 131 113
-6.66774 2.51983 11.9754 126 16 15
1.03837 2.97141 12.678 159 138 125
-6.71111 2.87284 12.0455 140 87 32
-6.71212 3.22571 12.2275 134 79 28
-6.2551 3.75757 12.1352 125 20 22
-6.60487 3.89043 11.9969 131 16 16
-6.16822 -1.90773 13.953 64 39 20
-6.44804 -0.51981 10.8128 32 35 64
-1.28936 -0.290273 15.2506 90 55 32
-6.16105 0.0311599 11.1476 120 27 20
-6.10704 0.34526 11.3404 165 148 126
-5.97739 0.647815 11.5737 156 143 120
-2.5554 2.0375 15.2774 182 130 105
-1.72393 2.39593 14.8853 119 70 42
-6.24023 2.36593 12.0622 122 15 14
-6.51265 2.47167 12.2661 126 20 16
-6.78605 2.55605 11.6882 118 18 11
-0.41959 3.58779 13.1263 142 112 108
-6.45631 1.40857 11.2402 82 69 75
-3.13786 -0.377651 13.1214 170 118 93
-1.51805 0.0603103 15.3793 159 120 106
-2.20132 0.498548 15.1434 190 144 121
-5.52622 0.839417 12.1683 165 116 57
-5.82453 0.94901 11.6763 154 108 48
3.73866 1.35006 13.925 109 63 34
-5.94416 1.20882 11.6798 100 8 6
-5.83464 1.36688 11.8593 162 144 126
-0.167199 2.13136 12.034 136 16 15
-6.2139 2.88294 12.6259 123 18 18
-6.11307 2.92536 12.8742 153 131 117
-4.67115 -0.0680033 13.562 143 98 78
-6.15501 3.82183 12.2523 160 132 126
-3.95983 0.0750065 13.1342 172 108 82
5.24508 2.65313 13.4626 175 151 144
-6.02171 -2.59388 14.8382 62 34 15
-1.32633 -2.38259 14.311 36 18 4
2.92961 -2.35861 22.9929 125 124 76
-1.84518 0.0487278 15.2428 156 118 101
4.77262 0.690053 13.6791 186 158 136
-5.9293 1.19107 11.6528 102 10 6
4.41726 1.61961 13.3701 96 50 27
-5.81215 1.38793 11.9065 162 144 126
-0.401078 1.56383 12.1219 22 12 9
-6.34341 2.67428 12.4475 154 103 38
-6.23424 2.87037 12.625 122 16 16
-5.60561 3.66482 12.8065 165 142 132
-5.64 -2.56039 14.2404 61 35 14
0.785833 2.9654 12.621 161 28 27
-6.59228 3.83786 12.004 134 16 20
-5.39138 -2.45055 13.6089 62 36 16
-6.21028 0.0622086 11.1272 120 19 14
-6.86974 3.08033 12.4765 127 16 22
-5.29599 -1.11215 13.7791 31 10 6
-5.18431 -0.486331 14.2534 175 128 103
-2.34831 0.0758057 13.9719 118 70 41
4.4191 0.375105 14.3293 157 122 105
-1.48683 2.44188 13.682 162 136 124
4.03338 0.935473 14.621 134 114 94
-5.56318 -1.10881 14.2821 50 20 14
-5.70434 -0.133098 14.1996 30 7 2
-2.69925 0.772757 15.8003 192 146 121
-1.0858 -0.667609 14.8259 122 81 58
5.11754 -3.4568 12.6207 12 10 9
-3.43445 -0.364451 12.9971 158 109 80
5.66747 1.08552 14.1358 160 133 113
4.22477 1.08517 14.4565 145 118 106
-5.6721 1.15304 12.0619 160 142 121
5.33806 2.76478 13.6563 174 151 146
-6.6646 2.89488 12.2354 106 8 8
-6.76021 3.08621 12.8372 91 15 9
3.36073 -2.43636 13.3828 85 78 65
4.59238 -1.19765 14.2829 154 148 96
-2.5085 -0.170517 13.8695 152 96 85
3.9975 1.17492 14.4468 145 120 106
-5.16855 0.918212 12.396 128 16 14
-5.76994 1.19353 11.9752 140 99 42
-0.251302 1.57173 12.1766 26 13 9
-6.55749 2.5809 12.1346 156 134 120
-6.2682 2.77201 12.5772 140 92 33
-6.24909 2.90978 12.481 119 13 10
3.42973 0.507042 15.2682 22 14 9
-5.36712 0.972864 12.2813 142 12 14
1.05244 1.95759 12.9169 149 82 70
0.36334 2.45246 12.3725 144 126 118
-6.35693 3.80484 12.2449 127 16 17
3.83241 -2.41074 11.9142 112 63 37
-4.60642 0.367701 13.706 104 56 32
4.57159 2.89163 13.8355 126 86 66
-6.03288 2.5011 12.4919 156 136 121
3.90218 -2.26114 12.1255 164 136 126
-5.40035 -1.72515 13.197 46 23 12
-0.956181 -0.431796 15.378 156 145 123
-5.89684 0.208936 13.7445 160 146 124
5.55216 1.29932 13.6188 103 68 51
0.561074 2.43967 12.1638 93 74 70
3.40406 -3.74454 14.0952 101 68 30
4.82246 -2.67214 12.0063 136 93 68
-4.67936 -1.39184 14.3386 42 12 6
3.83362 1.38939 14.0586 104 58 30
-5.86573 1.33389 11.8167 162 142 124
4.44817 2.32457 13.827 123 21 22
4.69609 2.64838 13.8829 36 20 20
5.8099 3.06075 14.7283 131 93 78
-6.20895 3.03835 12.5991 132 76 26
4.59237 -3.55141 12.9086 122 14 8
3.90498 -3.11675 12.6762 117 23 14
3.86931 -2.16163 12.1651 164 136 127
-5.46974 0.780812 12.0339 160 112 52
1.37568 2.52046 13.1111 148 131 118
-2.29017 -1.97242 14.3588 186 128 104
-4.36556 0.574949 13.9721 99 51 30
-0.458985 1.52328 12.0694 20 11 6
-2.35603 -1.73671 15.1155 79 30 16
-1.48162 0.107416 15.4356 158 119 103
-4.09787 0.307616 13.2457 175 113 90
-6.14171 1.57928 11.6366 86 58 60
0.985762 2.05687 12.4093 137 50 42
-6.73838 3.22611 12.306 132 74 26
-6.13957 0.524225 11.1802 118 14 14
-6.82952 3.16533 12.2686 122 14 14
-6.16479 0.385929 10.9047 155 138 136
3.55662 1.73076 14.6134 177 148 138
-2.96609 -0.0545406 14.9336 104 54 42
-6.04237 2.59062 12.6911 158 138 122
5.02961 -3.95439 12.8424 234 183 158
5.15774 -3.95059 12.8457 199 150 126
5.01998 -3.86888 12.882 204 152 126
4.21335 -0.52562 15.7311 94 64 44
5.15866 -0.249073 13.188 30 16 10
4.9836 -4.07461 12.913 102 48 22
4.72338 -3.80853 12.9098 139 112 82
4.05899 -2.51136 11.8067 164 118 100
3.72132 -1.94716 12.4101 32 9 8
-1.44148 -1.71568 15.0325 136 87 72
-0.905314 -0.752435 14.9374 153 142 119
-4.814 -1.27011 14.196 34 12 5
-0.995363 -1.2256 14.9758 28 12 6
-1.05811 -0.79441 14.9056 30 10 5
-0.884004 -0.744137 14.9449 152 142 120
-5.67939 0.599879 12.3269 156 138 114
0.125623 2.43643 12.2537 146 23 18
-6.12205 2.75092 12.5921 111 28 17
-3.5291 1.35915 15.3395 134 88 72
4.36366 1.40226 13.9325 149 120 108
-2.13957 -0.480989 14.2028 180 138 122
-5.08023 -1.92623 13.7732 164 111 94
-2.13625 -2.2856 14.8057 179 106 80
-3.76048 2.30492 14.8025 57 18 11
-2.8316 -0.771464 13.3031 126 84 56
-0.984573 -1.22092 14.8836 27 12 4
5.16467 0.350259 13.59 156 116 96
3.63165 -2.81308 12.6969 107 9 10
-1.24689 -1.36769 14.8383 150 100 78
-5.82839 -0.779007 14.2494 32 6 2
3.28136 1.93478 14.9205 88 32 30
4.21515 2.76085 14.556 195 173 168
4.53298 2.67793 13.9061 164 140 136
-2.17079 -0.468883 14.077 178 136 118
-1.62796 -0.29899 14.7924 57 17 9
-3.12579 2.01123 15.2579 91 40 22
3.64038 1.21025 14.8009 90 52 28
-1.26685 -1.5383 14.4462 40 16 10
4.85447 -4.00935 13.0922 152 148 94
4.44303 -1.88826 11.9298 118 92 88
-1.81458 -1.52266 14.7643 148 98 78
6.2771 -1.44678 14.3899 22 14 9
4.95371 -0.762398 12.9321 86 26 7
3.48934 -0.339834 14.764 154 131 108
4.91077 0.819535 13.6653 175 154 142
-3.70824 2.63595 14.7257 80 44 34
5.03629 -4.25576 12.7009 220 173 148
5.37791 -4.20418 12.7866 114 84 46
4.9042 -4.20714 12.9001 98 65 25
5.2885 -4.06228 12.9109 98 54 26
5.38258 -3.99875 12.8607 155 150 98
4.36721 -1.65651 14.7166 106 50 20
4.29975 -1.39177 14.855 84 10 4
-1.21152 -1.00858 14.8505 182 130 110
-4.44639 -0.950561 14.2479 151 108 88
5.02336 0.9307 13.8906 25 22 20
-2.23026 2.03124 15.051 188 136 114
-2.47539 2.23496 15.2646 126 73 42
6.39447 2.21231 14.0786 170 148 130
-5.26199 2.60575 14.7105 104 58 35
4.89365 -4.2117 12.8631 98 64 24
4.85727 -4.0832 12.9454 152 150 98
5.02725 -3.93265 12.8121 222 170 146
4.85329 -3.75842 12.8118 130 9 10
5.19078 -3.68832 12.6595 16 14 14
3.53318 -3.98495 14.3458 104 70 30
4.34914 -3.49129 12.9467 157 139 108
-5.35336 -0.301799 14.314 162 116 92
6.33409 1.78984 14.4057 174 156 150
4.82515 1.75668 13.5379 124 78 56
5.76641 2.38808 13.8027 196 172 148
-1.12758 -2.1678 15.2429 56 42 18
3.15462 0.708957 15.5545 153 138 113
5.96036 1.64016 14.2323 99 62 34
-2.39742 -2.88699 14.7622 53 24 13
4.86935 -3.7356 12.8477 132 6 8
-2.64037 -0.465663 14.5701 75 33 14
3.46392 0.470692 15.4212 24 14 6
-3.58105 1.37711 15.1415 141 95 79
5.47274 -3.54174 12.6606 170 152 134
6.51584 -3.721 14.0385 115 91 62
7.04979 -3.06316 12.982 101 68 32
-1.80128 -3.15746 14.9624 59 43 13
5.00405 -2.34491 11.5372 216 192 182
3.56652 -2.37848 12.1897 96 52 28
4.69616 -2.20233 11.4404 66 51 46
3.26323 -2.46837 12.9904 157 132 118
6.49578 -2.26325 12.1925 98 96 74
3.30109 -2.36572 12.7978 90 86 73
5.91082 -2.15278 11.7141 173 130 110
4.60205 -2.14508 11.6732 169 144 134
4.71961 -2.13772 11.7127 94 76 70
4.83527 -2.03827 11.872 156 140 134
4.55724 -1.98459 11.813 177 150 142
6.75629 -2.09951 12.4962 136 132 86
-4.91305 -2.34666 14.0746 30 17 7
-4.78761 -2.34137 14.2579 37 20 1
6.6555 -2.02902 12.415 86 60 21
5.06068 -1.87792 11.8185 104 85 81
6.41591 -1.94714 12.2714 99 29 21
5.01428 -1.8249 11.8243 224 210 208
5.90322 -1.8393 11.9727 159 140 124
5.17109 -1.75552 11.9409 174 156 150
4.6401 -1.75101 11.9392 111 89 80
6.20612 -1.76344 12.2422 122 91 66
4.51888 -1.69911 11.9821 158 136 128
5.68997 -1.67493 12.0485 110 94 81
4.52751 -1.79234 13.2326 178 153 144
4.61261 -1.59709 12.0902 160 134 123
5.73382 -1.59458 12.0384 166 146 134
5.92688 -1.56093 12.0824 110 75 54
-2.36419 -1.566 14.8928 120 72 44
4.64296 -1.37438 13.8523 90 78 61
6.5328 -1.38623 14.5934 152 147 98
3.99255 -1.31086 14.5734 118 61 38
3.55936 -1.05358 14.1017 162 132 108
4.69985 -0.958354 13.0486 132 18 15
6.59043 -1.08838 14.9373 85 68 61
4.62152 -0.908678 13.0196 170 78 56
3.88125 -0.858755 14.3128 111 60 36
5.72264 -0.772627 13.3965 62 35 32
5.80269 -0.758705 13.4038 160 96 66
3.34106 -0.807125 14.2347 52 22 2
3.49604 -0.776755 14.2449 164 133 112
4.24717 -0.688262 14.761 50 70 52
5.64189 -0.598606 13.5736 148 84 54
5.64497 -0.548843 13.2206 190 117 84
5.74629 -0.518736 13.2643 144 74 42
4.28943 -0.60524 14.8304 76 94 78
4.98081 -0.471922 13.2176 92 80 80
3.62369 -0.513585 14.7157 158 128 104
4.33959 -0.47853 14.9127 175 182 170
3.53338 -0.445315 14.7752 70 38 11
6.12433 -0.325105 13.2922 54 28 9
6.00576 -0.296234 13.3303 170 134 114
-1.33008 -0.383667 14.9384 98 55 38
-2.66171 -0.171552 13.6593 144 98 78
-2.60601 -0.134735 13.859 79 30 14
-2.59499 -0.00110183 13.8632 82 32 16
3.67786 0.142183 15.3925 96 69 39
3.40676 0.262092 15.0263 43 14 6
5.51302 0.253314 13.4967 182 154 131
3.66081 0.39884 15.2769 112 92 54
3.71261 0.370008 14.823 32 14 8
-3.38886 0.329267 13.1914 136 91 78
3.51973 0.441938 15.0652 24 12 5
5.24695 0.498285 13.815 162 110 88
3.64629 0.689274 15.3249 103 64 36
4.49068 0.747795 13.9707 44 20 8
6.01755 0.808668 13.8192 54 29 16
5.89065 0.830239 13.8378 34 12 10
5.19523 0.889978 13.9796 78 36 11
4.8979 0.938318 13.7445 22 17 15
-5.03198 0.793196 12.3991 156 138 116
6.82621 1.50802 14.356 116 84 57
3.93783 1.52197 13.9074 190 148 126
6.77604 1.65963 14.4842 164 141 133
4.77778 1.61365 13.5325 140 94 72
4.65944 1.60916 13.4871 177 128 106
4.68004 1.66774 13.3871 110 62 36
-3.60256 1.833 14.8901 106 58 39
6.20183 2.19235 13.8249 170 146 130
5.75567 2.32549 13.735 198 171 150
1.46529 2.40678 13.0375 98 73 66
4.34748 2.93371 15.1874 211 186 176
-6.10161 2.3257 12.1506 118 18 12
-0.345453 2.42611 12.1184 104 90 84
-6.13144 2.33099 11.9019 112 16 7
-0.41389 3.56471 13.1117 218 188 182
5.25691 -4.4514 12.7007 108 68 32
5.04683 -3.7848 12.664 135 86 61
5.55176 -3.46278 12.7184 36 30 22
7.10929 -3.68588 13.6596 102 71 32
5.62881 -3.32066 12.563 36 34 26
7.04217 -3.43671 13.4654 160 136 116
3.29978 -3.28554 13.5858 148 130 113
6.66458 -3.22585 13.3091 136 110 88
3.65362 -3.01484 12.9595 158 140 116
6.06251 -2.80633 12.2513 50 32 22
3.16538 -2.98365 13.7045 98 70 42
4.46878 -2.40973 11.1486 121 73 44
4.96143 -2.42343 11.5374 122 80 58
4.72055 -2.41823 11.8474 214 198 194
5.18402 -2.32161 11.4991 106 65 30
6.33852 -2.42856 11.948 110 78 50
6.24863 -2.30405 11.896 152 136 122
4.91477 -2.21387 11.6545 200 184 181
5.98526 -2.18177 11.7045 108 61 33
4.81741 -2.15469 11.7034 175 157 151
5.7434 -2.09149 11.7408 120 78 54
6.10894 -2.11561 11.9241 158 136 130
-4.88992 -2.44859 14.0287 38 24 10
4.47178 -1.9639 11.7849 101 74 64
6.08433 -1.92246 12.0505 157 139 129
3.53421 -2.16493 13.6681 157 133 120
6.52107 -1.93087 12.323 50 26 18
4.72752 -1.72474 11.9627 156 136 130
4.98332 -1.71467 11.9335 156 137 130
5.96567 -1.71309 12.0308 156 136 126
4.47513 -1.67168 12.0461 158 137 128
5.81573 -1.66653 12.1075 165 146 138
5.62782 -1.59607 12.0973 178 156 150
6.07861 -1.60938 12.2219 104 66 42
4.28974 -1.64424 12.7126 132 84 58
4.40263 -1.53842 11.9782 114 70 46
5.13107 -1.65968 13.1824 128 80 60
6.37375 -1.62804 14.2787 23 18 14
5.22905 -1.29884 13.64 90 82 65
6.19801 -1.3594 14.8124 58 13 8
3.85761 -1.34441 14.6628 144 140 92
4.80618 -1.14714 13.0757 121 12 10
4.12914 -1.22704 14.6169 74 8 2
3.83979 -1.18294 14.5712 96 22 6
-4.30612 -1.23491 15.1872 94 58 30
5.38272 -0.958222 13.2666 146 100 80
3.90466 -1.02402 14.4256 98 29 10
4.13366 -0.948338 14.6861 34 22 15
5.13937 -0.821935 13.1353 90 33 14
3.42992 -0.855125 14.1169 183 150 132
5.42131 -0.802695 13.242 16 4 2
4.90775 -0.698475 12.9935 172 86 58
5.9893 -0.663745 13.1563 180 155 131
4.09486 -0.75667 14.5967 9 6 2
3.2771 -0.694375 14.0002 164 136 114
-3.89985 -0.809127 15.5949 130 88 64
4.59372 -0.749126 15.4121 66 48 21
5.32004 -0.624434 13.2915 131 82 62
3.86574 -0.618071 14.3177 155 114 92
-4.46328 -0.581153 14.3537 144 100 84
4.4753 -0.571031 14.8477 79 67 35
-2.92109 -0.473401 13.901 130 94 72
6.07685 -0.403904 13.3046 178 152 130
4.21823 -0.454607 14.8735 10 8 5
5.72899 -0.390364 13.2288 171 138 118
5.54837 -0.38199 13.2996 182 115 84
5.63662 -0.349986 13.2496 158 94 58
-2.65736 -0.353919 13.7828 125 80 54
-1.69376 -0.377919 15.0468 49 12 6
4.39628 -0.328056 15.4141 157 147 126
-2.51155 -0.181339 13.8891 150 96 82
6.55641 -0.0446262 14.5149 142 78 52
-2.10141 -0.0743705 14.3391 146 100 82
-5.82556 -0.0821572 14.4232 29 6 2
-2.63024 0.203566 13.9766 116 66 48
5.1991 0.26276 13.3261 182 122 98
3.48517 0.279611 14.6135 62 38 17
-3.39209 0.250355 13.3222 56 14 5
-5.18965 0.273933 14.0514 64 25 11
5.23281 0.382091 13.4427 72 27 11
3.37955 0.455997 16.018 151 139 117
3.40761 0.463801 15.3076 22 11 6
3.63752 0.556505 15.2988 142 112 83
4.29505 0.57016 15.3009 68 38 15
4.24173 0.592499 13.7877 176 111 82
5.91266 0.730992 13.8096 183 155 132
4.30336 0.751664 14.0587 18 16 15
5.0597 0.785642 13.911 138 112 100
4.17832 0.883118 14.1937 128 102 89
5.96962 0.89662 13.813 180 157 142
6.78819 0.954799 14.7944 46 18 6
6.8776 1.00775 14.7061 146 96 68
6.07992 0.998989 13.9651 28 20 14
3.6885 1.15103 14.9696 84 41 20
6.94995 1.20606 14.7193 106 66 36
-0.546784 1.49941 15.913 154 116 89
6.88414 1.40809 14.3317 152 138 118
4.59774 1.45486 13.7035 156 127 116
-6.44386 1.67654 16.0975 158 110 85
5.15467 1.65732 13.6721 98 51 28
5.79209 1.73348 14.0822 166 138 126
6.4976 1.91698 14.138 144 80 56
5.88346 1.92471 13.6846 155 74 52
-2.11726 2.06384 15.2517 199 150 128
1.03665 1.99592 12.7985 152 134 120
4.26123 2.33698 13.9659 122 55 58
6.4565 2.78655 14.6991 120 89 78
0.665816 2.41583 12.4454 134 116 114
-0.479273 2.42969 12.3187 146 124 118
-0.362474 2.59124 12.1345 128 112 108
-0.642067 3.34149 13.2782 60 22 16
4.99481 -4.41712 12.5224 103 62 22
5.07768 -2.34102 11.5139 128 83 62
-4.79416 -2.45646 14.1305 154 146 98
5.59833 -0.119001 13.3583 179 147 126
4.99646 -4.41995 12.5443 104 64 24
5.38903 -4.20666 12.8038 110 82 42
5.40322 -4.00014 12.8756 152 150 96
4.93165 -3.68263 12.6482 132 12 14
4.90413 -2.7634 11.9155 12 12 11
4.99225 -2.49072 11.439 141 102 78
5.19674 -2.51239 11.5205 10 9 10
-1.71007 -3.07694 14.7998 60 41 18
-2.0889 -2.98934 14.4441 48 28 14
5.18288 -2.32375 11.5078 104 64 29
-1.37975 -2.8971 14.9739 55 38 16
5.08215 -2.21322 11.5774 170 147 141
3.46142 -2.35295 12.8259 158 132 120
-1.25017 -2.77317 15.1744 64 47 16
3.32094 -2.36982 13.1034 88 81 71
5.7877 -2.09456 11.789 120 78 56
6.11636 -2.10926 12.0485 158 138 130
-4.92343 -2.4255 14.1038 34 20 8
4.7317 -1.93306 11.5606 90 76 70
4.46695 -1.94991 11.7529 97 72 62
3.39675 -2.03216 12.7327 158 130 119
4.85745 -1.86252 12.2055 93 78 69
6.41444 -1.83152 12.4576 146 126 108
-2.552 -2.1248 14.3844 174 108 78
5.35587 -1.71507 11.9425 178 158 152
4.74262 -1.70229 11.983 156 136 130
6.05319 -1.73084 12.1696 152 132 122
5.0896 -1.63264 13.0216 134 86 68
4.04235 -1.80576 14.8295 153 142 94
6.35699 -1.61534 14.2735 22 17 12
-4.59107 -1.64456 14.5407 143 140 86
4.93105 -1.47448 13.8492 164 137 125
4.60261 -1.50549 14.189 153 149 94
-0.868659 -1.48672 14.909 90 66 29
4.409 -1.47304 14.8147 152 150 100
5.02826 -1.30819 13.4569 157 130 120
3.83825 -1.35041 14.6289 146 141 92
4.61931 -1.30424 14.0949 74 82 62
6.16105 -1.35482 14.7496 58 13 8
4.64618 -1.18379 13.8898 78 81 64
3.84047 -1.17608 14.5384 98 25 8
-4.29847 -1.2333 15.1617 94 58 30
4.45216 -1.17973 14.9339 150 148 94
4.62933 -1.06246 14.0523 76 82 66
3.41415 -0.873597 14.078 176 144 124
4.31501 -0.847773 14.8547 47 65 44
4.57056 -0.72447 13.1568 166 130 116
-2.38451 -0.805463 13.7531 176 124 96
4.0757 -0.750264 14.5014 10 6 2
-3.85194 -0.814249 15.4965 131 88 64
5.81842 -0.563039 13.199 180 146 122
-3.7905 -0.565078 13.578 93 58 22
5.2477 -0.457686 13.3199 128 74 52
3.68813 -0.480896 14.688 161 128 116
4.67773 -0.387267 12.8564 11 8 11
6.04103 -0.395558 13.265 177 152 132
5.77899 -0.383809 13.3154 176 141 120
-3.22078 -0.389988 13.307 166 112 84
-2.54144 -0.366014 13.9195 70 26 9
3.61383 -0.341858 14.7511 62 20 6
-1.81024 -0.352875 14.7259 140 100 78
4.52665 -0.220909 13.5091 164 134 122
-3.14609 -0.211833 12.6942 155 106 83
-4.37211 -0.132581 13.2961 85 41 18
5.32246 -0.052455 13.3724 40 14 9
-2.09353 -0.101081 14.3951 146 103 85
-5.83382 -0.0916113 14.4271 30 6 0
4.05967 -0.0143509 15.0784 78 47 24
-2.25494 0.0230663 14.341 108 65 42
-3.62566 0.115627 13.0349 184 126 107
-2.43613 0.110833 14.2309 86 36 19
4.76968 0.17339 13.392 78 36 23
-5.58237 0.130101 14.5846 34 10 8
3.67036 0.231535 14.6956 162 130 111
-5.72738 0.18187 14.4365 91 44 24
3.47762 0.280053 14.6577 50 29 12
-5.66325 0.294005 14.6355 154 140 118
3.83674 0.396046 14.9536 30 19 8
4.97256 0.404706 13.4949 119 95 81
-4.18471 0.389393 13.4554 168 106 86
3.42606 0.488714 15.1514 22 15 12
4.64008 0.725812 13.8809 117 86 70
-4.55068 0.693137 14.0569 170 121 96
4.30348 0.780749 14.0798 18 14 12
5.07526 0.784254 13.9791 142 118 106
4.16552 0.862683 14.2454 128 104 87
7.10861 1.20011 14.7471 150 138 118
6.92499 1.21715 14.6701 105 64 32
5.43632 1.19918 13.9463 194 171 158
4.69779 1.22842 14.1635 107 62 34
-5.43781 1.23473 14.8435 144 96 71
3.19308 1.4237 15.7989 122 100 78
-5.502 1.10963 12.2249 160 144 122
0.246768 1.3812 14.6197 153 138 118
5.18389 1.67206 13.7293 99 50 28
-6.55368 1.94723 15.8695 94 63 30
-1.27979 1.97362 15.3659 144 105 88
3.46068 2.0629 14.8181 98 42 44
3.19707 2.22507 15.6123 101 76 54
-6.37406 2.2096 15.6526 94 63 29
6.44362 2.22074 14.1996 174 148 132
1.04295 1.97904 12.8031 152 136 120
-0.913066 2.1722 13.2167 152 129 118
-1.12386 2.33374 13.0393 85 64 56
3.93556 2.67537 14.6195 182 155 149
-5.16059 2.55653 14.4328 101 54 30
6.03407 2.69161 14.2118 180 147 122
0.683228 2.61972 12.2692 206 191 188
-0.373402 2.57625 12.1222 128 113 108
-0.591169 2.72486 12.5543 155 24 21
-6.09874 2.87739 12.7481 152 130 116
-0.652383 3.01022 12.8385 154 26 27
-0.640156 3.37861 13.3095 64 26 21
5.45859 -3.54708 12.5625 128 110 74
5.98367 -3.13614 12.5098 162 144 116
6.04045 -2.98179 12.4962 53 34 18
5.64518 -2.19831 11.698 162 140 132
5.75502 -1.99656 11.9002 160 141 134
4.58257 -1.82004 11.9119 124 103 94
4.34285 -1.65512 14.6662 96 40 12
6.5615 -1.33175 14.7105 153 146 99
5.83009 -0.637938 13.0476 171 138 118
-2.85381 -0.741821 15.3041 160 111 78
-3.34493 -0.439731 13.1358 101 66 30
4.92147 -0.228086 13.2168 16 12 18
6.08252 0.275345 14.3121 168 146 124
-4.09627 0.339819 14.046 176 116 96
-2.38631 0.364222 15.106 146 97 81
4.33619 0.683536 13.6986 66 36 24
3.26362 0.863917 15.3881 102 70 35
6.71503 1.41801 14.2657 112 80 49
-4.90896 1.37844 14.5869 150 102 82
-0.530479 3.47695 13.1254 72 37 28
4.98141 -4.09219 12.8597 102 44 20
4.80015 -4.06975 12.9317 150 147 96
5.44142 -3.98929 12.9304 150 148 96
3.43957 -3.857 14.1944 103 68 28
5.89937 -3.09428 12.2689 161 144 118
4.64185 -2.78639 12.005 122 10 8
3.3443 -2.67636 13.4903 154 130 114
4.33847 -2.22058 11.5651 167 142 135
-4.94612 -2.43191 14.0951 44 27 16
3.41731 -2.14067 13.0853 159 134 121
-4.70165 -2.22546 13.9551 28 16 7
5.77618 -1.84011 11.9268 90 102 85
4.19064 -1.73247 12.0909 170 142 134
5.55826 -1.6467 12.0559 173 154 147
5.95695 -1.5977 12.1274 116 82 60
-1.03253 -1.992 15.2154 144 143 89
4.44287 -1.56055 12.2605 130 81 58
3.99958 -1.58933 14.2861 83 34 14
-4.77919 -1.50819 14.0667 142 88 73
2.85885 -2.2618 22.3422 124 122 75
-4.66492 -1.37513 14.3064 48 15 8
3.84341 -1.39378 14.8148 146 142 92
4.15621 -1.31718 14.6295 74 8 2
6.57298 -1.31639 14.7028 150 145 96
-4.03569 -1.19066 15.564 110 72 40
5.26701 -0.935147 13.1124 158 104 86
4.28819 -0.993596 14.7076 60 12 6
-3.72478 -1.12219 16.658 158 144 120
5.11622 -0.798709 13.168 90 32 12
0.79541 -1.51245 23.5205 82 83 42
4.56972 -0.765261 13.3828 162 131 121
-3.65653 -0.85823 15.62 90 55 20
-2.04595 -0.76607 14.2118 178 134 118
3.76561 -0.550649 14.7064 159 130 112
-3.33144 -0.470643 13.0398 101 66 28
4.15539 -0.505401 14.7903 14 9 6
5.0471 -0.23951 13.2552 14 10 12
-2.14488 0.11863 15.1106 140 92 76
3.48042 0.294715 14.739 42 24 8
5.52469 0.271828 13.4038 185 158 140
4.57922 0.513999 13.56 186 156 135
-3.4894 0.52378 14.4732 124 82 65
7.07014 0.627888 15.991 58 32 9
6.78631 0.892404 14.7368 82 50 25
5.42577 1.13314 13.7779 174 147 132
6.74116 1.17557 14.7307 31 12 4
4.87762 1.17716 14.0678 176 142 120
4.68286 1.20653 14.2114 98 56 30
3.25836 1.25509 14.5641 171 143 130
-5.39947 1.25908 14.6919 147 98 72
-5.53664 1.14111 12.2186 160 142 124
6.65112 1.69518 14.4751 165 148 140
-3.361 2.46631 15.621 136 104 98
-1.75241 2.374 15.002 121 72 46
-5.9234 2.46615 14.9817 106 64 30
-0.576309 2.23676 12.3242 160 24 21
6.35934 2.72649 14.4393 120 90 78
1.08202 2.54056 12.857 146 128 116
5.92306 2.83882 14.1331 134 98 84
-0.0576206 2.52731 12.3306 132 115 109
4.12378 3.08668 14.5277 174 152 144
4.99884 -2.56456 11.7031 158 116 96
3.38305 -2.46465 12.4543 154 128 116
5.61043 -2.20591 11.7333 164 142 135
5.68688 -2.00673 11.882 164 144 138
4.18388 1.22828 13.9109 150 124 111
6.00421 2.32266 13.6929 166 140 120
5.53924 -3.64737 12.7096 154 148 96
4.09507 -3.98915 14.7127 102 84 58
3.95574 -3.10616 13.0921 125 13 12
3.59545 -3.0638 13.015 160 142 120
4.61586 -2.82856 12.0851 122 8 8
5.17365 -2.51934 11.4717 11 10 10
4.24259 -2.53608 11.7712 120 10 9
5.09311 -2.28999 12.0059 188 172 166
4.59451 -2.31894 12.3448 167 141 134
4.93478 -2.11295 11.7709 152 135 128
4.16276 -1.77898 12.1397 170 144 136
5.46608 -1.6615 12.3536 174 154 147
4.49453 -1.567 12.4038 138 89 67
-4.90291 -1.56508 14.2504 146 92 76
4.58713 -1.20689 13.8916 77 84 62
0.205861 -2.12918 23.7158 128 126 77
-4.61524 -0.975616 14.302 156 110 92
0.801759 -1.59601 23.5317 86 86 47
4.88138 -0.800677 13.1369 165 70 43
5.75101 -0.780777 14.0087 12 6 5
5.92465 -0.455088 13.3068 182 154 136
-1.63401 -0.305361 15.0433 53 16 8
5.61918 -0.144417 13.3708 176 144 124
-4.38783 -0.165838 13.3618 97 53 29
3.3851 -0.0185156 15.1217 161 144 120
4.0783 0.0585339 15.2647 80 47 22
3.47055 0.293078 14.7971 32 15 6
5.63312 0.296802 13.5498 186 158 140
-2.19999 0.538151 15.1718 196 150 126
2.97214 0.819373 15.3688 153 142 120
5.46306 1.12021 13.8017 174 146 131
6.35368 1.26311 14.5731 142 123 104
6.20235 1.80728 14.0283 205 188 184
-6.59401 1.91809 16.003 97 66 31
5.26649 1.84869 13.5847 182 161 158
0.808121 1.80322 12.653 140 28 22
6.31464 2.71618 14.335 117 88 76
-4.03677 2.71278 14.5422 154 124 116
4.09573 3.11108 14.4506 176 153 147
5.1957 -2.65788 12.4276 130 89 68
3.39169 -2.47971 12.4449 150 126 114
-1.477 -2.89677 15.0381 50 34 14
4.75843 -0.562776 13.4121 26 20 16
4.97997 -0.475384 13.2577 72 59 60
-4.94414 0.466503 13.7938 160 112 90
5.62638 0.589945 14.0558 29 14 11
5.25155 1.06357 13.9365 164 137 122
5.68645 1.4418 13.6006 96 58 34
-3.64663 1.7053 15.1865 132 86 72
3.64598 2.40057 15.1213 176 149 142
5.43306 2.6641 13.8751 174 150 146
3.13219 -3.09358 13.3075 100 72 31
-1.51556 -2.86997 15.0647 46 31 12
-1.2464 -2.4616 15.3692 53 37 16
4.49406 -1.57556 12.3122 117 70 46
-4.49652 -1.81498 14.6396 150 144 90
-4.09967 -1.1885 15.5582 122 85 54
0.906745 -1.68304 23.4457 87 88 48
-3.91578 -0.737161 14.9186 94 54 28
-4.16799 -0.269997 13.3537 84 41 20
3.46723 0.506591 15.4222 24 16 11
5.49358 1.18294 14.1886 176 152 138
1.19752 1.93426 12.5732 152 136 119
4.46817 2.39546 14.0473 122 30 30
0.908518 2.33191 12.8734 161 28 28
5.12734 2.57105 13.8833 178 156 150
3.70331 2.66151 14.1802 111 68 50
-5.0789 -2.42911 13.8245 54 31 13
-4.52457 -1.93841 14.7478 150 144 91
-1.21996 -0.847448 14.6641 38 14 10
4.24235 -0.77258 15.0411 7 5 0
-1.56987 -0.507356 15.5652 70 26 18
3.47002 -0.131608 15.2628 160 142 117
4.07145 0.330554 14.7217 94 75 42
-2.12791 0.65415 14.7136 199 154 131
-0.410084 1.49685 11.8784 22 12 11
3.27387 1.89739 14.5993 107 56 54
-2.81566 2.75586 15.9861 164 132 123
2.52996 0.838962 15.4845 154 142 119
7.04941 -3.14703 13.1097 154 130 101
-1.64814 -2.61863 14.5614 90 52 33
5.84303 -1.98005 12.0624 154 136 130
4.90438 -1.05411 13.0772 116 16 10
