ply
format ascii 1.0
element vertex 329
property float x
property float y
property float z
property uchar red
property uchar green
property uchar blue
end_header
-0.490943 -0.587826 3.56806 0 255 0
-0.473821 -0.452558 3.50838 0 255 0
-0.287818 -0.44207 3.44198 0 255 0
-0.130431 -0.437213 3.3831 0 255 0
0.0833505 -0.432078 3.34535 0 255 0
0.294803 -0.422008 3.32138 0 255 0
0.501496 -0.401653 3.32814 0 255 0
0.675951 -0.412983 3.37259 0 255 0
0.875566 -0.401118 3.45405 0 255 0
0.945062 -0.420539 3.48733 0 255 0
0.870536 -0.291698 3.47384 0 255 0
0.700035 -0.249573 3.47141 0 255 0
0.488954 -0.279683 3.42635 0 255 0
0.266178 -0.292426 3.35499 0 255 0
-0.0314577 -0.2831 3.30131 0 255 0
0.481187 -1.17928 5.46092 141 148 110
-0.55625 -1.1091 5.25201 216 214 168
-0.187849 -1.21333 5.69442 148 148 120
-0.147817 -1.1597 5.63867 219 221 177
-0.527193 -1.04514 5.25187 108 106 78
-0.514365 -1.04446 5.24609 114 112 88
-0.508313 -1.03678 5.25318 176 172 156
-0.49532 -1.02195 5.25249 174 168 153
-0.474611 -1.01776 5.26689 178 174 160
-0.0999922 -1.00268 5.53601 178 180 146
-0.420902 -0.956915 5.28434 114 116 94
-0.404728 -0.947441 5.28351 166 163 138
-0.400633 -0.937274 5.2816 115 116 89
-0.276337 -0.77706 5.28528 178 178 150
-0.16472 -0.752862 5.37351 126 125 96
-0.0687628 -0.662158 5.38082 120 122 82
0.527934 -0.618828 5.48519 220 228 188
-0.443736 -0.70093 5.55999 218 217 168
0.47563 -0.446492 5.31369 224 190 178
-0.200396 -0.246513 5.35956 88 52 36
0.378077 -0.110162 4.96842 122 116 90
0.216801 -0.00624051 5.3527 184 165 164
0.203997 -0.00720835 5.34894 89 52 52
-0.208078 -1.18178 5.64112 132 133 106
-0.149491 -1.17147 5.65926 221 220 174
-0.20612 -1.15575 5.64836 225 222 180
-0.499913 -1.05983 5.26309 219 217 170
-0.186708 -1.1449 5.63867 120 123 90
-0.519843 -1.04176 5.24774 108 106 84
-0.471174 -1.0354 5.27584 218 218 167
-0.452364 -1.02139 5.29331 218 216 164
-0.492544 -1.01043 5.26098 108 108 86
-0.451273 -1.00133 5.27825 107 109 86
-0.467342 -0.979535 5.27257 106 107 84
-0.434432 -0.976674 5.27652 118 117 94
-0.412048 -0.961891 5.28567 106 106 84
-0.397519 -0.965546 5.31202 134 132 108
-0.366291 -0.951002 5.31482 220 220 170
-0.378518 -0.940409 5.30253 118 120 97
-0.329643 -0.920524 5.32653 222 223 175
-0.405646 -0.911877 5.27848 104 103 77
-0.317573 -0.880266 5.30857 118 118 94
-0.315837 -0.859976 5.30062 152 150 128
-0.216237 -0.818864 5.36678 224 227 182
-0.233001 -0.810715 5.3389 119 120 98
-0.230073 -0.776905 5.32875 154 152 128
-0.254567 -0.725031 5.30646 224 228 184
-0.100128 -0.691415 5.38542 122 122 91
0.528522 -0.592296 5.48525 58 60 22
-0.415717 -0.655634 5.52441 216 216 170
0.578493 -0.56562 5.45894 226 231 192
-0.321639 -0.613267 5.50648 218 216 176
0.534227 -0.505108 5.34476 169 130 104
0.423612 -0.342625 5.32277 228 188 176
0.425709 -0.322698 5.33761 156 110 84
-0.16444 -0.315649 5.33123 79 36 25
0.250448 -0.254213 5.16487 187 164 160
0.236101 -0.246763 5.21726 104 72 50
-0.140401 -0.263794 5.24861 136 90 69
0.377328 -0.207692 5.01676 232 224 216
0.214085 -0.131083 5.26192 62 40 36
-0.203553 -0.0855922 5.64164 95 56 38
0.220515 -0.105723 5.28695 157 125 124
0.404515 -0.124356 4.97412 132 118 76
0.403216 -0.107858 4.97089 152 131 76
0.408106 -0.0300504 5.03871 223 216 212
-0.437085 -1.00939 5.28858 216 214 164
-0.19621 -0.676592 5.31926 126 124 101
0.21598 -0.240683 5.17094 220 186 176
0.412108 -0.0151236 5.01764 225 218 212
-0.233787 -1.21551 5.69868 222 220 175
-0.528067 -1.08677 5.25058 221 219 169
-0.551489 -1.07533 5.24001 108 112 88
-0.525048 -1.06745 5.25722 111 112 82
-0.520149 -1.04353 5.24703 108 108 85
-0.471955 -1.03739 5.27692 218 217 166
-0.450432 -1.02377 5.29748 218 216 164
-0.491163 -1.00979 5.26117 110 110 88
-0.451466 -1.00056 5.27682 109 112 90
-0.418523 -0.992996 5.30326 216 216 165
-0.465281 -0.980404 5.26898 104 105 84
-0.365087 -0.935652 5.31947 109 110 88
-0.317822 -0.879716 5.30917 118 120 96
-0.26718 -0.867139 5.35175 222 225 176
-0.251665 -0.83965 5.36734 130 128 108
-0.234432 -0.810748 5.35143 115 116 94
-0.307376 -0.807484 5.29679 127 124 106
-0.214468 -0.802181 5.37355 121 122 98
-0.254376 -0.730132 5.30198 224 228 184
-0.0252849 -0.655944 5.39499 224 234 191
-0.362838 -0.655414 5.50473 103 104 74
-0.025802 -0.619824 5.35552 94 100 58
-0.525693 -0.656676 5.60241 210 208 151
-0.348302 -0.629784 5.50487 215 218 176
0.544721 -0.544332 5.39892 161 128 92
0.559775 -0.524457 5.38163 228 234 194
0.534483 -0.504135 5.34658 187 149 122
0.446175 -0.361421 5.32388 239 207 202
0.465252 -0.301091 5.34918 233 224 216
-0.162559 -0.317962 5.33207 83 38 26
-0.144558 -0.250809 5.24871 196 158 142
-0.235034 -0.19387 5.61099 114 71 50
0.216262 -0.176756 5.23275 54 27 19
-0.228519 -0.157607 5.58976 59 26 11
-0.218677 -0.100751 5.63731 202 192 169
0.371743 -0.112136 4.98311 224 218 212
0.392527 -0.0992781 4.97351 151 136 102
0.408628 -0.0321641 5.03631 226 217 213
0.308297 0.100451 5.6104 160 112 115
0.416774 -0.0271044 4.99695 121 91 74
-0.171859 -1.17421 5.66031 124 127 93
-0.147183 -1.14382 5.63833 128 132 100
-0.540623 -1.04396 5.24129 218 215 170
-0.435497 -0.991009 5.29027 126 124 105
-0.400378 -0.964504 5.31156 124 122 99
-0.191629 -0.794221 5.37175 228 230 186
-0.16056 -0.768799 5.38917 228 232 184
0.0975708 -0.706053 5.36912 172 169 123
-0.113249 -0.712119 5.41121 126 126 95
-0.0740117 -0.671452 5.4004 120 120 84
0.575339 -0.61369 5.45208 218 222 188
-0.236872 -0.633727 5.5537 222 228 184
-0.154769 -0.602593 5.75996 224 230 187
0.412145 -0.437392 5.41346 111 76 46
-0.15965 -0.302593 5.28013 189 148 120
0.234761 -0.218402 5.19375 227 198 196
0.392083 -0.161488 4.99833 110 106 75
0.401125 -0.124551 4.96761 138 122 77
0.425191 -0.0848066 4.96902 231 219 208
-0.490317 -0.981358 5.25326 217 215 166
-0.407233 -0.963432 5.30379 112 111 88
-0.458515 -0.953214 5.28528 221 220 170
-0.36982 -0.935873 5.31798 112 114 94
-0.401372 -0.914056 5.27887 108 108 84
-0.222783 -0.834864 5.3811 222 226 179
-0.0837043 -0.816157 5.41891 226 230 184
-0.120462 -0.73665 5.40043 229 234 188
-0.229099 -0.724015 5.31149 129 127 108
-0.200589 -0.68511 5.32304 125 124 102
0.572799 -0.591713 5.46793 224 231 191
0.449836 -0.505882 5.46768 78 84 52
0.33013 -0.392471 5.45163 46 20 11
-0.375707 -0.963107 5.31489 220 220 170
-0.186383 -0.764821 5.36884 124 126 105
-0.0824479 -0.700201 5.40308 226 230 188
-0.233843 -0.632359 5.53758 222 228 184
-0.0834284 -0.990045 5.53437 112 126 88
-0.399775 -0.915502 5.2804 98 100 76
-0.0442665 -0.674075 5.38976 226 233 190
-0.196299 -0.298736 5.29557 194 150 118
0.362549 -0.167521 5.00587 88 88 66
-0.222422 -0.649049 5.55058 220 228 183
-0.315509 -0.854847 5.34927 112 112 92
-0.186659 -0.690128 5.35426 122 122 100
0.310686 -1.21618 5.67359 200 203 155
-0.393565 -0.967482 5.30914 112 112 84
-0.370536 -0.884041 5.26925 135 130 111
-0.567846 -1.12177 5.26437 201 200 148
-0.191127 -1.22936 5.69323 200 198 150
-0.457034 -0.952264 5.26785 198 194 144
-0.324918 -0.905336 5.33099 98 102 75
-0.29434 -0.884001 5.3228 200 201 155
-0.269834 -0.765048 5.29991 98 98 76
-0.265297 -0.757041 5.31808 99 97 78
0.577661 -0.65465 5.44217 80 70 23
-0.362646 -0.686176 5.54966 195 197 150
-0.080607 -0.635184 5.36745 146 144 116
-0.363246 -0.651694 5.50332 82 82 52
0.210616 -0.533746 5.36628 73 77 60
0.247823 -0.182038 5.235 28 10 3
-0.18924 -1.211 5.68826 120 119 96
-0.568521 -1.12546 5.27952 198 196 144
-0.126178 -1.13712 5.63492 198 199 152
-0.289249 -0.868741 5.33818 94 96 77
-0.2902 -0.793003 5.29561 103 102 80
-0.267118 -0.764076 5.30762 94 94 72
-0.0112265 -0.634426 5.38779 203 210 166
-0.403166 -0.980745 5.3007 196 195 142
-0.193442 -0.659987 5.3184 204 206 167
-0.262306 -0.863339 5.34074 201 202 152
-0.157055 -0.727213 5.35609 92 93 70
0.260449 -0.2389 5.16413 183 166 164
-0.300537 -0.900447 5.34144 198 198 149
-0.223012 -0.605539 5.54578 82 82 56
-0.170668 -1.17111 5.68751 98 103 71
-0.199062 -1.17907 5.7886 198 199 148
-0.339287 -0.898463 5.33775 90 92 70
-0.331918 -0.804016 5.28552 199 200 154
-0.261981 -0.722919 5.29871 202 206 156
-0.297428 -0.76575 5.2913 196 200 150
0.501915 -0.522695 5.42176 198 209 168
-0.389858 -0.918886 5.29249 89 92 70
0.496435 -0.509528 5.42405 199 210 168
-0.0107852 -0.53609 5.22667 120 122 78
-0.279823 -0.914509 5.3391 198 200 148
0.705219 -0.91072 5.14462 192 194 148
-0.571872 -1.0954 5.23483 79 80 50
-0.543726 -1.03731 5.22769 184 182 128
-0.404165 -0.874387 5.27458 183 184 134
0.42555 -0.0861969 4.96203 192 184 176
-0.232334 -1.24467 5.72355 94 99 53
-0.540266 -1.05647 5.2397 102 100 75
0.72513 -0.923952 5.05279 82 86 58
0.549696 -0.643432 5.47678 197 203 163
0.506925 -0.590437 5.5102 201 210 166
0.48517 -0.357346 5.37384 132 141 100
0.45695 -0.321632 5.3423 184 156 146
-0.0510427 -0.359263 4.94041 124 130 92
-0.23512 -0.349538 5.34854 180 144 127
-0.409148 -0.375763 4.89902 197 192 168
-0.191901 -0.309909 5.30663 180 132 97
0.206322 -0.252925 5.19014 154 116 93
0.104368 -0.227051 5.17851 123 86 76
0.227959 -0.137003 5.26596 138 110 108
0.190284 -0.111248 5.25189 170 140 136
0.458316 -1.17314 5.45342 201 202 154
-0.288001 -0.869903 5.34014 102 104 80
-0.206452 -0.688612 5.31388 106 105 84
0.562512 -0.590538 5.47443 198 204 164
0.464547 -0.431632 5.32127 138 96 75
0.476467 -0.424109 5.29189 213 188 178
0.299031 -0.39044 5.45104 68 66 46
0.411332 -0.295446 5.29797 190 161 143
-0.433846 -0.35496 4.8773 196 188 164
-0.124122 -0.293191 5.27367 80 38 20
0.196176 -0.253144 5.18827 177 137 116
0.211167 -0.22359 5.19231 196 160 151
0.239419 -0.137164 5.26241 58 35 27
0.237488 -0.0960851 5.2904 49 24 16
0.154392 -0.102175 5.27085 72 40 36
0.222838 -0.0314394 5.31932 128 93 91
0.207531 0.0318027 5.37247 131 88 88
0.190208 0.0544657 5.38889 106 62 57
0.18237 0.0768365 5.41047 132 92 92
0.22566 0.156352 5.48592 81 42 39
0.169763 0.148934 5.46128 138 103 104
0.0869535 0.219771 5.48275 110 72 58
0.759299 -0.953412 5.09103 200 200 153
-0.124582 -1.10779 5.61198 108 114 75
0.52951 -0.606116 5.4887 58 65 28
0.47609 -0.507846 5.4547 193 202 164
0.509867 -0.442816 5.32821 182 148 132
-0.40191 -0.330965 4.86043 196 190 169
0.17968 -0.241883 5.15906 141 103 84
-0.14797 -1.17303 5.65947 198 199 146
-0.511171 -1.01139 5.24636 194 191 144
0.0499588 -0.757948 5.44051 125 127 80
0.0671987 -0.697632 5.4237 106 114 64
0.549664 -0.628255 5.45913 69 72 27
-0.15461 -0.619722 5.32655 202 208 166
0.564616 -0.592273 5.47335 196 204 162
-0.323083 -0.625352 5.3227 82 84 54
0.541155 -0.476775 5.35263 203 204 168
0.437905 -0.368153 5.36171 98 58 34
-0.405298 -0.379472 4.91831 198 194 170
0.280468 -0.164257 5.27024 121 92 89
0.15926 -0.127703 5.24397 115 80 76
0.19017 0.055814 5.39895 106 62 58
0.171896 0.0707697 5.38418 136 94 95
-0.541145 -0.140624 4.77517 91 89 70
-0.558111 -0.125888 4.7744 194 185 177
0.166007 0.147575 5.45697 139 106 107
-0.217353 -0.818985 5.35329 202 204 154
-0.081305 -0.69466 5.39875 210 212 166
0.511424 -0.599531 5.50123 196 206 160
0.518751 -0.53643 5.46212 198 209 166
0.47946 -0.525397 5.44802 66 71 36
0.477704 -0.423356 5.28974 210 198 178
-0.409038 -0.366597 4.89114 90 96 64
0.166404 -0.254513 5.16102 192 158 143
0.125878 -0.21601 5.17789 190 157 151
0.404036 -0.155928 4.99135 208 201 191
0.310605 0.173593 5.59752 189 180 178
-0.0755051 -0.666435 5.39842 96 98 60
0.554777 -0.6317 5.47195 70 72 28
0.496458 -0.605622 5.49037 194 206 162
0.391489 -0.529507 5.44474 130 135 95
0.546769 -0.475738 5.37671 206 205 169
-0.138839 -0.478066 5.57297 36 21 6
-0.172574 -0.326255 5.28058 69 31 19
0.199698 -0.204699 5.20763 54 24 18
0.252708 -0.18755 5.22966 37 18 13
0.145416 -0.0824843 5.2704 120 87 86
0.12225 0.222435 5.50449 165 136 134
-0.441689 -1.0245 5.29567 196 192 140
0.484715 -0.525302 5.47616 66 71 34
0.535574 -0.469007 5.34106 202 208 168
-0.482871 -0.278934 4.81282 73 80 49
-0.556856 -0.167165 4.77889 200 192 184
0.183793 0.200345 5.52564 90 50 48
-0.182383 -0.623614 5.55121 198 206 158
0.110525 -0.441876 5.41286 141 146 124
0.532751 -0.578593 5.48239 67 64 29
0.381721 -0.466645 5.50334 50 50 29
0.127994 -0.242411 5.18534 205 178 169
0.488243 -0.615929 5.49911 195 207 164
0.065252 -0.292464 5.12984 26 14 8
0.524711 -0.57022 5.45874 68 62 27
0.277022 0.156204 5.55349 112 78 76
0.126266 0.198413 5.44605 168 136 134
0.358811 -1.32983 5.67029 68 77 28
-0.610718 -1.1564 5.2394 168 166 115
-0.625617 -1.14178 5.23908 164 161 110
-0.570353 -1.10675 5.25985 60 60 26
-0.546075 -1.10237 5.26453 168 168 114
-0.425693 -0.928921 5.27183 66 63 36
-0.372649 -0.91297 5.29074 86 90 67
-0.387542 -0.885309 5.29158 62 64 36
0.176647 -0.726162 5.36046 30 44 18
-0.183343 -0.730319 5.34192 106 106 85
0.378649 -0.683548 5.232 104 109 90
0.391648 -0.676431 5.25022 67 74 56
-0.227609 -0.623665 5.53755 170 172 126
-0.321241 -0.598331 5.51427 126 95 58
