ply
format ascii 1.0
element vertex 410
property float x
property float y
property float z
property uchar red
property uchar green
property uchar blue
end_header
-0.122449 0.100842 0.11844 0 255 0
-1.12295 0.0907409 0.181743 0 255 0
1.09019 -0.633358 -0.267122 0 255 0
1.49321 -0.0867953 0.564665 0 255 0
-1.4196 -0.172651 0.763071 0 255 0
0.147643 -0.17477 -0.980393 0 255 0
1.04656 -0.787539 0.30998 0 255 0
-1.53962 -0.556363 1.20961 0 255 0
1.06686 -0.362801 0.623903 0 255 0
0.630969 -1.76186 5.63084 136 36 1
0.719552 -1.65698 5.62865 153 66 32
0.314229 -1.70933 5.8272 192 80 23
0.64872 -1.62737 5.60897 176 80 46
0.374239 -1.66929 5.7744 95 0 0
0.39954 -1.63025 5.77141 181 64 16
0.570858 -1.56908 5.7563 172 210 158
0.681967 -1.43325 5.65045 160 68 38
0.308785 -1.42907 5.99567 102 94 90
0.424066 -1.25427 5.82798 183 166 157
0.0983157 -1.29302 6.0608 111 118 120
0.865454 -1.19152 5.84555 114 108 88
0.817476 -1.1638 5.81212 128 37 18
0.542475 -1.13267 5.72866 76 80 70
1.01947 -1.16594 5.87256 4 6 8
0.779055 -1.12385 5.80697 126 95 70
0.66739 -1.10762 5.72255 55 20 6
1.50593 -1.11778 5.83775 156 158 162
0.986842 -1.12313 5.86488 124 128 128
0.494784 -1.0835 5.74345 58 61 54
-0.123175 -1.1564 6.11897 100 105 106
0.0500265 -1.14201 6.08259 106 111 114
0.573649 -1.06262 5.72703 54 57 47
0.626779 -1.06427 5.72517 168 168 150
0.484585 -1.0087 5.76093 58 60 48
0.566413 -0.998695 5.74494 72 68 60
0.874115 -0.977286 5.87941 132 30 13
0.468474 -0.942298 5.77187 176 174 162
0.564235 -0.943872 5.75957 166 172 153
0.736083 -0.952032 5.83153 88 37 14
-0.411638 -1.00253 6.16933 8 15 11
0.417463 -0.939356 5.89557 108 107 98
0.54556 -0.901974 5.80615 88 80 66
0.0442128 -0.943557 6.15723 152 66 23
0.431815 -0.897427 5.90422 180 177 172
0.464753 -0.909184 6.08607 107 108 102
-0.0401052 -0.914391 6.23068 168 84 45
0.392441 -0.864126 5.92813 117 118 113
1.85383 -0.813303 5.67697 2 4 2
0.274184 -0.836165 6.09391 126 126 124
0.45857 -0.803779 5.96522 104 104 100
-0.607908 -0.81055 6.1666 4 6 5
0.326008 -0.785133 6.0281 163 164 160
0.733396 -0.758994 5.96372 124 118 108
0.94001 -0.721266 5.84058 154 156 158
0.974095 -0.683916 5.79284 154 156 158
0.396531 -0.706215 6.00858 185 186 182
0.368805 -0.663301 6.05245 98 98 91
0.553588 -0.654758 5.98368 154 154 148
-0.758536 -0.616663 5.93585 4 5 3
-0.7151 -0.621664 5.93985 93 95 93
0.563962 -0.607975 6.01204 204 200 190
-0.785871 -0.583405 5.96742 56 58 55
0.448731 -0.600048 6.06593 139 138 133
0.697767 -0.582456 6.12664 84 80 70
0.397348 -0.559736 6.07485 91 89 82
1.31358 -0.520337 5.79944 78 82 80
0.245741 -0.546561 6.16662 197 199 198
0.436469 -0.527047 6.07822 181 181 174
0.561691 -0.498531 6.05854 104 102 92
-0.843159 -0.449703 5.74216 32 32 30
0.23801 -0.495279 6.22865 154 156 156
0.636679 -0.486011 6.07904 178 172 163
1.56725 -0.441538 5.828 14 16 14
0.688708 -0.46645 6.09393 92 92 90
-0.824025 -0.40372 5.69693 8 2 0
0.683313 -0.402928 6.06585 154 153 151
0.260501 -0.405723 6.11753 126 126 123
0.320072 -0.379301 6.08597 120 119 116
-0.775472 -0.334266 5.6177 132 21 0
-0.934151 -0.327708 5.75524 4 12 8
-1.09427 -0.302582 5.65732 26 27 24
-0.981795 -0.214245 5.65782 160 80 49
0.990945 -0.202632 6.26624 124 68 42
-0.933951 -0.172522 5.63349 152 54 19
-1.0898 -0.134286 5.6051 10 4 0
0.682054 -0.0814517 6.20333 148 148 148
-1.14354 -0.0699009 5.59673 3 4 0
-1.13716 -0.0197164 5.56063 159 76 44
-1.32976 0.0168291 5.46765 81 81 79
-1.0142 0.0313247 5.7153 12 3 1
-1.30261 0.115002 5.4971 12 1 0
-0.141786 0.233989 6.50898 171 172 172
1.1017 0.24872 6.34546 54 45 39
-1.04801 0.230648 5.66859 151 153 151
0.909464 0.27343 6.47478 72 60 58
-0.0139235 0.303135 6.45007 1 3 2
1.07906 0.310824 6.32785 92 94 97
0.99313 0.325651 6.44763 92 94 98
1.01893 0.324375 6.3925 107 106 110
-0.0582982 0.31402 6.46391 76 78 76
-1.36781 0.307078 5.38273 168 72 36
1.02741 0.36583 6.32889 4 8 8
1.09367 0.3757 6.35554 50 54 54
0.984353 0.412448 6.329 88 91 92
-0.14792 0.453368 6.41057 150 146 140
-0.117812 0.494935 6.37648 38 32 25
1.25372 0.532485 6.28308 74 74 67
0.228396 0.584804 6.57471 97 85 68
0.884685 0.579145 6.397 188 189 186
0.976397 0.593501 6.30507 38 35 28
-0.168587 0.618075 6.42106 172 164 150
1.05561 0.619671 6.26282 126 124 118
0.233358 0.65773 6.60247 154 150 140
0.92722 0.63937 6.30793 180 178 169
0.957002 0.71481 6.34184 182 180 168
1.00553 0.726863 6.31911 104 102 88
1.08654 0.765864 6.31231 119 116 111
0.0271871 0.960086 6.61237 4 4 0
0.158351 0.973546 6.67603 79 19 8
1.15463 1.1319 6.28192 84 8 0
-0.181835 1.24749 6.18904 238 144 100
0.00013788 1.40392 6.08825 117 46 29
-0.0868159 1.43073 6.03919 166 58 14
0.799753 -1.80865 5.70492 124 104 98
0.840984 -1.75457 5.76126 72 30 14
0.265713 -1.70522 5.89623 170 52 10
0.601938 -1.60236 5.57621 166 72 24
0.480481 -1.61025 5.72867 20 37 4
0.354694 -1.61142 5.79949 108 2 0
0.953482 -1.61818 5.81102 154 154 152
0.874582 -1.60812 5.79228 50 7 0
0.627255 -1.45624 5.63832 140 34 8
0.44047 -1.40058 5.95222 164 70 8
0.684478 -1.35256 5.84394 126 106 41
0.78856 -1.34388 5.93285 74 18 7
0.479003 -1.27469 5.80149 171 73 32
0.927109 -1.31257 5.92312 79 70 60
0.0603765 -1.34743 6.149 8 10 10
0.584992 -1.22627 5.77517 98 34 7
0.991828 -1.23425 5.90392 157 160 160
1.14806 -1.18411 5.74214 8 10 8
-0.0112492 -1.25118 6.15523 122 124 126
-0.260939 -1.20937 6.05692 62 2 0
0.112528 -1.22135 6.0539 0 6 10
-0.310812 -1.15925 6.16133 59 12 8
0.521718 -1.04516 5.73368 170 170 160
1.4321 -1.0542 5.77602 7 8 8
0.957036 -1.05716 5.85329 0 2 1
-0.435302 -1.12361 6.34067 160 168 169
-0.479113 -0.958195 6.20708 106 115 118
0.895813 -0.904709 6.02127 75 55 47
1.9096 -0.851329 5.65548 2 4 4
-0.14888 -0.94447 6.27926 56 2 0
0.52198 -0.859061 5.91233 178 179 174
0.232498 -0.895347 6.18179 188 190 186
1.67433 -0.798485 5.80258 146 147 147
0.634993 -0.834704 6.10363 159 158 150
0.524729 -0.807818 5.94791 185 183 178
0.644059 -0.787748 5.91698 155 152 146
0.818928 -0.780471 5.95826 70 62 52
0.909828 -0.759064 5.97177 158 160 162
1.95063 -0.703418 5.65959 2 4 4
0.579838 -0.74483 5.95762 143 142 136
0.394181 -0.72823 6.01981 187 188 184
-0.800419 -0.703248 5.98152 161 162 163
-0.884268 -0.685611 5.95766 14 16 16
-0.697721 -0.68078 5.99982 6 8 8
1.08287 -0.641379 5.78366 44 48 48
0.710984 -0.603652 5.97547 152 150 146
0.233107 -0.611763 6.17535 162 165 166
0.513432 -0.550607 6.04569 174 174 168
1.87567 -0.462231 5.54969 125 126 126
0.725426 -0.518466 6.10075 157 158 156
-0.786033 -0.480367 5.79602 1 2 0
1.69451 -0.498263 5.97767 133 135 134
-0.65209 -0.47883 5.83768 0 6 2
0.284773 -0.494961 6.16625 196 197 195
-1.02295 -0.438222 5.73979 8 10 7
1.72123 -0.433392 5.88485 2 4 2
1.44648 -0.362134 5.83757 2 4 2
-1.11787 -0.36214 5.72282 3 5 4
1.74215 -0.341671 5.98277 2 4 2
1.9589 -0.24851 5.62182 5 8 7
-0.91729 -0.278304 5.67776 178 64 24
-0.827736 -0.266766 5.64788 109 22 6
0.791795 -0.281631 6.2742 0 2 2
0.336331 -0.214958 6.10436 176 177 174
0.642852 -0.221491 6.229 1 2 0
0.721852 -0.212535 6.17369 140 144 144
-0.763356 -0.206647 5.88524 18 8 3
0.931847 -0.213587 6.30794 152 154 156
-1.03048 -0.147786 5.63153 174 73 39
0.71492 -0.148018 6.14248 1 4 6
0.781423 -0.112959 6.149 108 109 110
1.04728 -0.10206 6.23099 112 34 18
-1.07943 -0.0773597 5.70178 172 65 29
0.783263 -0.0355473 6.22601 24 12 13
-1.31568 -0.0176701 5.56265 13 13 11
-1.19955 -0.0110229 5.5183 2 0 0
-0.914762 -0.00525384 5.80214 163 164 160
1.89554 0.0693354 6.10806 111 112 113
-1.00373 0.112537 5.74425 158 158 160
1.1544 0.175453 6.30543 82 36 32
-1.05037 0.164902 5.7018 1 6 4
0.812008 0.181131 6.20685 141 38 0
-0.146244 0.19651 6.54592 168 172 171
-1.28885 0.169591 5.45286 162 77 40
-1.34533 0.19953 5.43606 0 1 0
-1.1137 0.253168 5.65369 2 6 2
0.933827 0.383516 6.34148 9 11 10
1.8942 0.368238 6.03715 32 34 34
1.03187 0.435203 6.29956 6 8 8
0.143783 0.45431 6.57286 164 164 166
0.854944 0.450821 6.37362 164 166 166
-0.0277156 0.458314 6.3915 175 174 168
0.954543 0.47261 6.36862 4 6 4
1.04539 0.52697 6.28147 184 186 182
0.317657 0.564855 6.60097 164 166 166
0.914821 0.544983 6.3196 188 189 184
1.09048 0.563972 6.26028 184 185 179
0.00717199 0.801808 6.44349 170 162 159
1.26999 0.894465 6.4107 38 13 2
1.08632 0.918448 6.44555 176 172 164
0.223299 1.05609 6.7551 131 137 128
0.204609 1.14019 6.74048 94 36 18
1.1202 1.17903 6.17745 198 86 31
1.2139 1.17426 6.16284 60 5 0
1.04424 1.3387 6.06342 172 64 12
1.11363 1.43373 6.1588 182 75 18
1.16493 1.42019 5.96151 154 50 10
0.961259 1.44881 5.99452 184 80 24
1.25597 1.47992 6.00639 66 21 6
1.1163 1.48472 5.93611 163 53 12
-0.0924584 0.833965 6.47498 158 156 151
1.56035 -0.444132 5.83641 6 8 6
1.38433 -0.348164 5.84059 134 136 136
0.274954 -1.80186 5.62236 168 125 108
0.470124 -1.70986 5.82055 178 72 15
0.597002 -1.61617 5.58949 180 86 41
0.356896 -1.62124 5.81066 104 2 0
0.860917 -1.60687 5.76666 45 4 0
0.344457 -1.54957 5.92023 154 161 170
0.883082 -1.53891 5.85329 151 154 155
0.883955 -1.38479 5.87943 150 157 158
-0.0238921 -1.38581 6.22708 160 160 162
0.920788 -1.29948 5.90901 84 72 61
0.673319 -1.23061 5.74998 101 44 17
-0.113629 -1.30423 6.19506 31 4 0
-0.0129276 -1.24574 6.14113 122 124 126
-0.252195 -1.21352 6.08545 54 4 0
0.104866 -1.21058 6.03231 0 6 11
0.597563 -1.13708 5.72077 156 152 139
1.41743 -1.04662 5.75563 10 12 13
0.955642 -1.05348 5.87946 6 2 4
1.04891 -0.957826 5.75402 34 36 36
0.651009 -0.927765 5.7795 64 21 10
1.89467 -0.837594 5.65579 2 4 4
0.532616 -0.83693 5.93288 170 170 164
1.68641 -0.811798 5.81256 148 148 150
-0.198084 -0.879457 6.26067 162 166 166
0.641915 -0.797223 5.92984 156 153 146
0.82841 -0.793092 5.96997 70 61 50
0.838002 -0.710805 6.0606 158 158 156
-0.780497 -0.715428 6.05743 158 160 160
0.221885 -0.718059 6.1455 163 164 166
1.08123 -0.644028 5.77641 22 24 24
1.64834 -0.638693 5.91466 139 140 141
-0.611755 -0.645715 5.9736 3 5 4
0.718771 -0.59918 5.89736 154 154 152
1.17819 -0.573505 5.89027 148 151 152
0.512825 -0.566662 6.04203 175 176 168
0.652806 -0.565183 6.07114 76 70 58
0.398628 -0.563968 6.07607 92 90 82
1.68947 -0.506222 5.96779 134 136 136
-0.655439 -0.476149 5.78552 0 4 1
1.70852 -0.441518 5.82907 6 8 6
1.33086 -0.429639 5.8018 2 4 2
-0.907678 -0.270785 5.66891 182 70 26
0.247703 -0.29039 6.14929 4 4 3
0.789193 -0.278948 6.26729 2 5 5
0.566085 -0.233724 6.10159 1 3 1
0.375444 -0.228974 6.18498 178 180 176
-1.24444 -0.175374 5.60994 140 141 140
0.613063 -0.130174 6.12297 158 164 164
-0.215988 -0.145263 6.42456 160 173 170
-1.28076 -0.0954663 5.61651 14 16 14
1.03448 -0.0836834 6.17828 93 22 16
0.238627 -0.0999855 6.5559 59 12 4
-0.903732 -0.0728869 5.82976 7 2 0
0.788575 -0.0317552 6.24774 22 12 12
1.18975 0.0794316 6.33435 144 148 146
1.04154 0.088447 6.28657 163 61 9
-0.988676 0.109751 5.74099 160 160 162
0.730301 0.123303 6.1906 177 66 9
1.14858 0.157509 6.30593 83 36 32
-1.28591 0.178994 5.4373 166 78 40
-0.157541 0.215214 6.51626 170 171 172
1.92422 0.275518 6.14207 107 108 109
-1.11857 0.250512 5.62019 4 10 4
0.858801 0.359338 6.35944 157 158 159
0.943533 0.390845 6.35533 3 4 4
0.958083 0.460609 6.36498 0 2 1
1.24084 0.476965 6.42592 150 153 151
-0.0246935 0.473464 6.36578 170 170 164
0.219644 0.536601 6.58401 98 86 64
1.30484 0.546348 6.39388 76 76 67
0.909993 0.564129 6.34358 173 173 169
0.108578 0.669865 6.41916 102 86 68
1.00791 0.854207 6.47886 182 172 174
0.0906433 0.846316 6.52071 78 18 10
1.08243 0.907439 6.4535 176 176 168
1.27721 0.917702 6.4491 51 16 4
-0.00931901 0.935267 6.57166 1 4 2
1.18256 0.994567 6.48702 4 4 2
0.192048 1.14095 6.69877 97 34 15
-0.217368 1.17817 6.22897 167 69 31
1.04116 1.21941 6.14266 160 70 35
-0.249487 1.33456 6.22137 185 74 12
0.334277 -1.49232 5.94782 158 160 162
0.957675 -0.800129 5.86137 57 58 60
1.58153 -0.628219 5.88801 139 140 141
-0.560873 -0.586763 5.91211 6 7 6
0.563004 -0.469782 6.03435 128 126 116
1.51276 -0.395812 5.83321 2 4 4
1.44433 -0.364812 5.8306 2 4 2
-0.212041 -0.25198 6.51183 20 19 18
0.150779 0.440128 6.53111 162 164 165
1.22423 0.600161 6.34737 92 90 78
0.892098 0.68022 6.41059 182 182 176
0.936201 0.689851 6.34412 175 174 164
0.8566 -1.63531 5.72105 66 13 4
0.891137 -1.50623 5.83427 152 152 154
0.903042 -1.40427 5.88024 156 160 162
-0.139256 -1.27619 6.14173 24 8 5
0.587936 -1.10422 5.70698 162 162 154
1.40336 -1.05068 5.78083 15 16 16
0.66907 -1.07178 5.95195 162 162 151
0.00300354 -1.03105 6.26895 42 6 0
0.669416 -0.931238 5.74208 64 30 16
1.55461 -0.88727 5.75665 9 11 9
-0.197074 -0.863399 6.26758 164 166 163
0.572882 -0.825034 5.9936 164 164 157
1.55438 -0.763412 5.79933 2 4 2
-0.728492 -0.795571 6.17369 164 166 166
0.296426 -0.733957 6.08911 188 190 187
1.61936 -0.61923 5.89043 139 140 142
1.1449 -0.540127 5.80757 148 151 152
0.286437 -0.512733 6.08697 196 197 194
0.578079 -0.49386 6.00806 96 92 82
0.425833 -0.439925 5.98855 176 177 172
0.755043 -0.407808 6.09502 150 153 154
-0.0467814 -0.334466 6.31089 164 170 168
-1.1794 -0.273798 5.65437 147 148 146
1.54178 -0.264482 5.97198 134 135 136
1.71239 -0.16782 6.07926 6 8 6
0.611384 -0.115772 6.19304 156 161 163
-1.26265 -0.0623739 5.57821 7 10 6
-1.1894 0.114885 5.43927 170 68 30
-1.50003 0.22234 5.5176 1 4 0
0.189176 0.250402 6.549 164 166 166
0.207829 0.418183 6.57724 162 164 166
1.28179 0.435476 6.44589 146 150 150
-0.00796732 0.520045 6.40342 172 172 164
0.370987 0.540934 6.59757 164 168 170
0.908224 0.726842 6.41849 180 180 176
1.27919 0.993697 6.64289 0 6 3
1.3818 1.2538 6.62335 82 28 12
1.2481 1.43723 5.98876 67 20 5
1.51531 -0.424443 5.90374 4 6 4
-0.235889 -0.124048 6.43933 164 168 170
0.195261 0.575317 6.63284 101 87 68
0.995938 -1.56318 5.81201 150 152 155
-0.0292166 -1.40396 6.20588 160 162 164
1.54051 -1.03741 5.79072 150 150 152
0.792321 -0.613387 6.0841 151 153 155
-0.892453 -0.361894 5.65839 19 20 24
0.961172 -0.260777 6.32836 150 154 156
0.913267 -1.45736 5.86185 160 158 162
-0.152796 -1.26911 6.15111 24 6 6
0.111273 -1.24393 6.03862 0 2 6
1.25733 -1.17292 5.86607 8 10 10
-0.0217327 -1.01968 6.24686 48 8 1
-0.352874 -0.919375 6.17641 10 8 9
-0.882176 -0.628119 5.9812 17 19 16
-0.648164 -0.589269 5.97004 2 4 2
0.608747 -0.528716 6.01927 82 76 65
1.48178 -0.454706 5.90387 2 4 2
-1.25821 -0.0337431 5.53463 4 8 4
-1.20309 0.116942 5.55131 154 52 16
-0.0311381 0.329396 6.40464 16 17 16
0.804931 0.329054 6.38156 156 160 160
0.233028 0.384617 6.5678 168 168 170
1.04171 0.416088 6.3913 8 10 11
-1.15486 0.425732 6.05794 155 150 154
0.397443 0.529881 6.59012 164 168 170
1.24379 0.998452 6.53793 0 6 2
1.25689 1.43139 6.0213 68 22 6
0.61326 -1.55652 6.01463 166 56 6
0.157719 -1.10191 6.27985 157 159 166
-0.192044 -0.847368 6.25261 164 164 162
0.458456 -0.370529 5.93514 162 164 160
-1.4525 -0.0207881 5.53495 122 121 118
-0.938683 0.0885411 5.79064 163 165 164
-1.03336 -0.381835 5.75153 2 4 2
0.451822 -0.415664 6.08665 173 174 170
-0.0181927 0.338095 6.51116 30 32 31
-1.21297 -0.625024 6.02705 142 144 144
-0.895862 0.116395 5.84267 162 164 164
1.00818 0.723508 6.25589 124 122 110
-0.022259 -0.99908 6.20413 62 6 2
