ply
format ascii 1.0
element vertex 317
property float x
property float y
property float z
property uchar red
property uchar green
property uchar blue
end_header
-3.6903 -1.4101 0.707593 0 255 0
-3.82273 -0.688732 0.524485 0 255 0
-2.96561 -0.497031 0.0879221 0 255 0
-2.27669 -0.42824 -0.283165 0 255 0
-1.39355 -0.374939 -0.585006 0 255 0
-0.389389 -0.216976 -0.837251 0 255 0
0.561071 -0.147512 -0.931838 0 255 0
1.43665 -0.185497 -0.820924 0 255 0
2.41744 -0.0900105 -0.567842 0 255 0
2.66841 0.00773717 -0.475987 0 255 0
2.31088 0.494016 -0.501575 0 255 0
1.5452 0.619995 -0.38608 0 255 0
0.449959 0.45414 -0.479729 0 255 0
-0.542916 0.293675 -0.671958 0 255 0
-1.53655 0.172966 -0.739097 0 255 0
-2.47233 -3.00737 8.77084 178 175 155
-2.48876 -2.89738 8.71255 142 142 118
-0.78427 -1.20342 8.86159 159 158 128
-1.23614 -1.95479 9.03869 190 191 152
-2.83065 -3.45193 8.80486 154 152 104
-2.38956 -2.80308 8.74827 128 128 103
-2.05993 -2.65045 8.83467 129 132 109
-1.1764 -1.60312 8.83887 134 136 114
-1.14208 -1.57252 8.86441 138 136 116
-0.973072 -1.39755 8.87265 136 134 112
0.608045 0.727918 7.61697 168 148 140
2.28882 -0.726096 8.89274 178 180 142
2.25612 -0.675169 8.92471 81 60 31
1.35195 0.463698 8.26337 161 114 88
0.510952 1.26517 8.08825 94 64 60
2.36413 -0.661673 8.94412 119 102 66
0.294603 -0.238113 10.1855 142 142 132
-0.748074 -1.233 8.91512 111 114 82
-2.28463 -2.58385 8.72053 96 92 60
2.19911 -3.54802 9.03619 90 101 60
3.09806 -2.30887 7.03051 92 95 67
-2.16855 -1.47454 10.012 98 96 50
-1.03323 -1.09472 8.67985 114 115 88
0.724555 -0.699557 8.31579 112 115 102
-0.118633 0.81042 7.92605 71 34 20
-0.101235 1.57616 8.29082 128 101 96
-0.0971957 1.60984 8.32271 126 101 95
0.444311 1.8513 8.46504 46 20 16
-0.0650533 2.12678 8.66946 119 92 88
0.213689 2.87564 9.21669 64 30 26
0.206244 2.87002 9.22654 83 49 44
0.35135 2.94887 9.43842 98 65 62
-0.0547357 2.4448 8.9091 89 56 50
-0.0106361 2.39448 8.84653 78 27 22
-0.133501 2.12205 8.6496 52 13 6
-0.108168 0.567101 7.67452 112 78 66
-0.0981954 1.77339 8.41212 100 62 54
0.74901 1.2435 8.18683 44 18 14
-0.963122 -1.38448 8.8539 110 108 85
-1.16308 -1.58618 8.8473 96 96 75
-1.75226 -2.22888 8.77867 89 91 68
-1.35916 -1.81081 8.83575 92 92 70
-0.809468 -1.22536 8.87336 100 100 74
2.15506 -0.551983 9.01038 55 52 20
0.565223 -0.378481 8.88142 32 20 12
-2.59772 -3.00964 8.75022 56 54 26
0.474144 1.95358 8.53446 118 94 94
0.498333 1.2487 8.01395 76 50 46
2.8152 -2.20622 7.35811 86 84 42
-2.2418 -2.67632 8.75464 100 100 76
-2.68469 -3.14283 8.86196 62 60 40
0.991978 -0.405559 8.9207 104 77 48
0.153335 -1.33629 9.19055 154 154 108
2.78959 -2.19456 7.34944 118 122 80
2.62717 -2.15541 7.43745 90 94 47
-0.938737 -1.36531 8.87501 90 90 64
-0.806996 -1.23151 8.86756 84 88 58
-0.660744 -1.09182 8.89257 84 88 56
-1.02174 -1.05915 8.64057 57 60 28
-0.333037 -0.862086 8.61218 64 64 15
1.50473 -0.5248 10.127 149 146 108
1.35084 -0.427215 10.0952 154 148 114
-0.0726105 -0.149175 8.89791 64 60 40
1.23433 0.587184 8.07903 152 124 114
-1.57537 0.317373 8.94994 172 130 104
-0.310669 0.523314 8.0105 94 66 57
-0.119212 0.991661 7.93896 86 53 48
0.798396 1.24234 8.21336 56 26 22
-0.115843 1.19303 8.05526 109 85 80
-0.0845038 1.79414 8.44261 104 64 56
-0.0200207 2.38673 8.83116 68 23 16
-0.0817332 2.38798 8.85545 70 25 16
0.442136 2.53932 8.95455 127 98 95
-0.498435 2.53142 9.28775 107 78 76
-0.0477848 2.86016 9.24243 81 36 21
-2.26135 -2.92438 8.84383 89 90 54
1.06024 -1.00162 8.10489 77 80 68
0.504141 0.805595 7.73715 110 72 58
0.323228 1.36743 8.08595 92 60 56
-0.070323 2.07575 8.6581 114 84 82
-0.0175522 2.77861 9.18019 119 84 75
-0.0799897 2.79215 9.06264 86 40 26
-0.17764 2.90132 9.34794 106 60 43
-2.53022 -3.50431 10.5953 70 72 48
-0.0843137 -0.665031 8.20423 34 42 13
0.153105 0.0328864 8.90951 110 110 102
-1.57981 -2.28824 8.93406 110 114 70
-1.48746 0.38184 9.11896 87 46 18
-2.3816 -2.78552 8.71161 96 92 68
-0.354057 -2.90337 9.88012 127 131 84
-2.66569 -1.28307 10.3205 112 96 44
1.63581 -0.617344 10.0303 133 133 99
-1.59032 0.288275 8.83024 162 124 96
-0.0769725 2.04228 8.58692 122 96 95
-0.33992 -1.05697 8.94567 142 144 100
0.353428 -0.0252211 9.05575 62 67 50
-0.103675 2.73329 9.07269 71 25 13
-0.343265 -1.96932 9.16582 99 110 70
1.20394 -1.11527 7.98814 86 92 76
-1.01214 -0.871496 9.73223 110 114 72
1.74244 -0.530758 9.1215 140 154 114
-0.150555 -0.235004 8.97242 32 24 4
-0.0934538 -0.0315953 8.61258 74 77 62
1.19774 0.547931 8.12634 134 110 97
1.15224 0.560144 8.15604 56 28 16
1.0409 2.72919 9.64015 92 64 60
-0.475046 2.49342 9.24346 56 16 12
-0.764 -1.48549 9.02816 93 98 58
1.66758 -0.555801 9.9385 75 56 37
1.21472 0.517232 8.17485 30 10 1
-0.32221 0.506787 7.70969 72 44 36
-0.131373 0.9828 7.94063 75 38 32
0.464466 1.07534 7.97311 22 7 4
0.222768 2.9499 9.21087 120 84 76
-1.88116 -0.501172 8.61975 142 138 79
-0.229045 0.644892 7.9044 64 26 18
-2.65761 -3.21505 8.73032 98 98 77
-0.670647 -2.46249 9.5205 106 114 70
-0.415851 -2.29648 9.38528 91 104 62
0.943098 2.26456 9.00135 129 102 99
-0.0772573 2.50068 8.9019 59 19 10
-1.0451 -1.10581 8.67743 98 96 68
-0.169106 0.546601 7.55661 98 66 56
-0.661351 0.93938 8.13286 123 78 66
-2.54305 -3.0089 8.683 61 60 38
2.9409 -2.16064 7.10326 57 61 30
-0.562226 -2.77259 9.6227 98 106 72
-0.72295 -2.70308 9.69518 118 119 74
2.42882 -1.07958 8.72063 82 76 32
-0.598748 -1.32627 9.06039 88 95 44
-1.06511 -1.08997 8.56584 67 66 28
-0.354983 -1.04173 8.67591 158 156 112
-0.882046 -0.968331 8.96003 87 88 51
-1.03422 -0.898631 9.67102 100 104 56
-0.618362 -0.717889 7.88787 105 108 70
-1.52614 -0.860096 9.92134 104 84 61
1.7991 -0.139524 8.1479 128 85 68
1.60958 0.0771012 8.2273 92 50 16
1.50298 0.509719 8.29031 93 48 23
-0.973893 0.203455 6.79096 90 98 62
-1.50591 0.484438 8.92247 160 138 110
0.665276 0.770522 7.66847 114 100 88
-0.772301 1.38653 8.54283 120 92 82
-0.60267 2.10426 8.98139 133 96 88
-0.578518 -3.33219 10.1144 110 117 70
-0.910976 -1.49982 8.76615 76 82 55
-0.604221 -1.32806 9.03556 96 102 51
2.30732 -0.514836 8.7294 148 120 96
-0.781848 -0.475961 7.61403 42 42 13
1.66702 -0.180594 9.07122 92 73 54
-0.831002 -0.359015 7.57783 60 64 39
1.54073 0.0514447 8.0802 66 32 10
0.510486 0.18919 9.48158 7 6 0
1.51604 0.485045 8.34848 107 65 40
0.970819 0.588789 7.62901 118 96 76
-0.984786 0.51313 6.49318 110 114 94
-0.282439 1.50087 8.10848 96 48 32
-1.01461 1.95817 9.07803 97 60 42
-0.59952 2.15919 9.0957 112 84 79
-3.4863 1.24456 6.47014 102 89 70
-0.866189 2.50545 9.92668 115 75 60
0.0220788 2.80495 9.18011 70 25 18
-3.10934 -3.98687 11.4719 54 60 36
-0.983627 -1.44316 9.08162 72 76 50
-1.24447 -0.528119 8.50927 152 139 96
0.386849 -0.0134485 9.18463 64 67 54
0.492602 0.650215 7.63133 64 48 36
0.456596 1.41193 8.07641 66 38 32
1.00691 1.94911 8.91299 72 44 44
1.05025 2.26837 9.19583 86 44 36
-2.28221 -1.34081 9.20715 147 144 89
-1.40688 0.501213 7.45212 130 112 86
-1.37427 1.04916 8.43645 137 130 106
1.40011 -0.131282 8.04484 152 140 112
-1.65921 -0.732051 9.30218 137 124 80
-0.643658 -0.0600461 7.02275 108 120 88
1.21358 0.617706 8.05808 35 12 3
0.934456 0.615026 7.61533 104 88 66
-0.954556 0.48242 6.4883 108 114 92
0.913475 2.2878 9.05842 55 25 24
0.928075 2.31704 9.02072 114 86 85
-0.037698 2.16071 8.68045 58 16 8
0.90099 2.62912 9.33892 106 76 74
-0.355301 -1.96922 9.13937 85 98 58
2.2065 -0.667286 8.9204 37 28 6
-1.59721 -0.844603 9.63707 148 134 88
-1.64347 -0.791111 9.49109 92 77 42
0.488167 1.70239 8.37213 110 86 81
-0.647933 -3.49063 10.2279 98 104 63
2.95305 -2.27176 6.98848 150 152 111
2.93843 -2.25339 7.0702 64 72 26
1.20556 -2.71169 8.71354 134 141 98
0.911483 -2.47482 7.88028 105 109 62
2.77213 -2.14394 7.06387 157 156 110
0.0630769 -1.44517 9.13133 150 152 104
-1.99731 -1.43806 9.99417 112 112 57
2.27561 -0.642871 8.77793 118 93 66
1.53544 -0.417392 9.02219 98 112 72
1.30116 -0.364351 10.0995 32 12 2
1.86662 -0.179136 9.53484 155 133 113
1.79504 -0.109471 9.58466 50 28 6
1.88862 -0.0795189 8.10325 106 69 54
1.78614 0.0149675 8.91059 92 50 19
1.77309 0.0874054 9.17502 152 120 96
1.7269 0.121323 8.97791 48 18 1
1.53354 0.293982 8.5149 190 154 137
1.53239 0.324361 8.60519 89 53 32
1.54469 0.360035 8.12027 90 46 30
-0.0104304 0.32733 7.88154 89 74 65
0.0243872 0.400984 8.15924 77 60 47
1.34241 0.498352 8.16265 86 44 12
-0.0957606 0.423788 7.5582 42 13 1
1.28641 0.576156 8.12849 62 27 6
1.43264 0.694929 8.11395 74 47 38
1.4287 0.773474 8.39273 68 42 32
1.27198 0.800982 7.99558 57 29 20
-0.861266 0.745079 8.06691 59 24 16
0.502076 0.804536 7.69636 64 26 13
-0.887384 0.796561 8.20996 118 98 93
-0.856783 0.825327 8.21028 36 10 4
-0.774891 1.23494 8.42644 34 10 6
-1.2927 0.939471 5.8693 103 111 92
1.07609 1.61677 8.54518 44 19 15
1.04899 1.62674 8.55588 110 84 80
0.506324 1.70654 8.29239 35 12 8
-0.682545 1.73294 8.66094 135 102 93
1.40866 2.18545 9.48929 118 100 90
1.1175 1.77552 6.78758 143 126 114
1.1088 1.80598 6.75444 112 90 77
-2.71348 -3.24578 8.91187 53 56 34
1.81477 -4.15006 13.6067 136 142 94
1.78091 -4.06157 13.6037 156 160 111
2.6891 -2.12984 7.06065 120 122 76
2.59851 -2.13673 7.39006 121 124 73
0.382242 -1.24206 6.03043 92 92 88
0.825296 -1.11784 9.23082 130 136 98
-0.0812916 -0.740084 7.9472 94 92 51
-0.888002 -0.797331 9.87722 90 94 50
2.00776 -0.33178 9.65432 82 64 46
-0.884859 -0.343218 8.08689 40 35 14
1.94001 -0.187035 9.7148 98 69 47
1.97961 -0.0975326 9.62632 152 137 114
1.85615 0.131216 9.64563 37 16 3
1.57536 0.294797 8.7299 165 131 114
-0.373069 0.448108 7.78802 28 9 4
1.55746 0.628176 8.45564 104 68 50
0.851695 0.513568 7.35619 52 46 26
1.34283 0.566204 7.63716 146 109 96
1.52167 0.706298 8.52515 84 56 47
1.23159 0.706786 7.88462 121 96 88
1.53869 0.786877 8.32027 75 50 38
1.74599 0.867551 9.03407 132 116 106
-0.83667 0.741761 8.01399 90 38 18
0.678952 0.83028 7.02332 74 59 42
-1.17415 1.42738 8.7761 124 104 80
0.391846 1.64243 8.01318 54 18 11
0.943294 1.75024 8.07533 82 51 48
0.990787 1.94802 8.81318 96 75 74
1.05961 1.75702 6.80262 78 54 43
1.08246 1.77293 6.6631 69 42 29
1.14442 2.61593 9.49223 96 64 56
-1.82066 -2.54147 9.19427 75 79 38
0.0957349 -1.77732 7.78328 130 138 86
0.149432 -1.5593 8.23744 139 146 100
0.0198972 -1.57198 9.06167 152 158 106
0.583222 -1.11065 7.42982 86 96 83
-2.09299 -1.40996 9.47444 132 130 81
2.44916 -1.0922 8.89456 97 92 54
0.666835 -1.01075 7.85756 146 154 108
2.03514 -0.548682 8.07683 138 106 76
1.64721 -0.1312 8.13118 150 145 118
1.88252 0.00513555 9.59466 47 20 2
0.40585 0.110761 9.02239 8 4 4
-1.14672 0.0063829 7.59614 50 36 14
-1.26335 0.239169 8.24387 90 72 62
1.24143 0.571712 7.99287 60 28 12
1.32436 0.640638 7.89103 142 114 100
-0.895156 0.661656 7.80985 161 109 80
-0.919515 1.12301 8.32383 36 10 4
1.14369 1.09924 6.98276 133 124 110
-1.19307 1.2067 8.49617 120 114 90
1.06127 1.44937 6.67256 76 66 28
0.111806 1.88827 8.2355 88 40 34
0.867384 1.66691 6.74414 66 34 26
1.1352 1.66194 6.38262 84 44 23
-0.848971 -0.838782 9.48718 153 156 106
-1.73997 -0.768816 8.68479 144 127 75
-1.03865 -0.11564 8.09909 46 48 38
-0.605834 -0.0232069 7.80848 25 25 18
-0.0900454 0.39666 7.30829 82 54 38
0.539833 0.824906 7.7641 142 110 100
0.70168 -0.604 9.23453 154 154 120
0.859642 2.70423 9.24375 112 95 92
0.403441 -0.728116 6.17251 134 132 100
2.10515 -0.561536 9.20663 107 89 64
-2.74673 -3.19596 8.65926 73 80 52
-0.624533 -3.42301 10.2289 132 140 97
0.462035 2.28138 8.76726 126 104 100
-1.25327 -2.27944 7.06047 73 74 22
-0.109017 2.47712 8.86739 50 16 8
0.460015 1.86398 8.48833 72 50 47
-1.10805 -4.30906 11.2245 101 106 52
