ply
format ascii 1.0
element vertex 283
property float x
property float y
property float z
property uchar red
property uchar green
property uchar blue
end_header
-1.10136 -0.0937964 2.11986 0 255 0
-1.67519 -0.11491 2.27021 0 255 0
-0.464106 -0.46117 1.76794 0 255 0
-0.162916 -0.187183 2.19045 0 255 0
-1.76509 -0.276853 2.62235 0 255 0
-1.07676 -0.23383 1.4793 0 255 0
-0.43917 -0.558036 2.09676 0 255 0
-1.81859 -0.464465 2.91646 0 255 0
-0.376046 -0.323592 2.27241 0 255 0
-0.0867241 -1.06484 5.08587 181 86 50
-0.208955 -1.05622 5.23479 103 3 0
-0.113435 -0.788551 5.15805 180 178 168
0.10625 -0.799508 5.2002 114 112 106
0.0179677 -0.782391 5.18701 134 100 72
-0.0864905 -0.738415 5.15625 169 170 154
-0.111112 -0.728829 5.16712 158 158 148
-0.118523 -0.709949 5.18574 67 66 57
-0.18682 -0.677041 5.20532 178 178 168
-0.698439 -0.704689 5.56623 106 108 110
-0.189651 -0.638832 5.2943 110 111 106
0.583231 -0.589632 5.00959 84 86 85
0.562192 -0.549858 4.98969 124 126 127
0.509573 -0.555935 5.1023 14 16 14
0.649433 -0.512479 4.97694 40 41 42
-0.772938 -0.566993 5.45515 162 164 164
-0.835851 -0.550534 5.4474 126 128 128
-0.203069 -0.527343 5.3645 96 96 90
-0.817781 -0.516857 5.41359 121 123 121
0.291822 -0.436523 5.12913 77 80 79
-0.0170998 -0.44433 5.3551 164 164 159
-0.18823 -0.442515 5.3761 114 114 107
-0.994743 -0.440877 5.36141 61 63 61
-0.125751 -0.428392 5.34626 202 202 194
-0.989062 -0.424356 5.30664 55 57 54
-0.227952 -0.361654 5.38679 122 122 119
-0.339532 -0.359933 5.50772 104 106 109
-0.975167 -0.328539 5.30639 124 74 52
-0.100615 -0.311156 5.37312 64 65 61
-0.084187 -0.306678 5.37905 168 170 166
-0.102198 -0.249955 5.4016 88 90 90
-0.478089 -0.262582 5.59966 204 186 184
0.171711 -0.22936 5.43766 116 28 1
-1.15615 -0.243783 5.25272 118 120 118
0.0128766 -0.210104 5.38418 116 120 121
0.0240783 -0.189754 5.39963 106 110 116
0.0356454 -0.184149 5.37855 10 8 8
0.0415176 -0.139461 5.41164 42 26 16
-1.22802 -0.160237 5.27478 93 93 91
-0.443143 -0.0650141 5.65577 201 179 174
-0.453005 0.0695204 5.64723 16 16 14
0.153822 0.104246 5.45577 35 38 38
0.128385 0.139442 5.4807 22 22 21
0.249211 0.415079 5.5517 26 2 0
-0.265599 -1.18422 5.26918 160 72 26
-0.220019 -1.09105 5.19111 100 4 0
-0.0763388 -1.04486 5.18447 51 44 2
0.0239506 -0.894424 5.18862 73 42 36
-0.351588 -0.920224 5.39656 78 81 84
-0.0799488 -0.818022 5.19988 156 146 126
-0.621998 -0.730717 5.5324 39 49 46
-0.117533 -0.659799 5.22618 99 92 78
0.578004 -0.565039 5.01801 142 144 144
0.404712 0.491505 5.57695 134 124 106
0.252838 -0.425193 5.14095 2 2 3
-0.0534934 -0.422344 5.34969 181 175 166
-0.256023 -0.379173 5.41785 127 128 126
-0.328383 -0.375578 5.46135 64 66 66
-0.248899 -0.332168 5.44276 2 2 1
-0.0851575 -0.304032 5.39701 7 8 6
-0.411021 -0.279783 5.60985 24 0 0
-0.208459 -0.215493 5.6713 56 15 14
-0.282082 -0.0809614 5.67068 49 52 52
0.147119 0.18795 5.44196 44 43 38
-0.853274 -0.496688 5.42287 52 54 50
-0.261743 -0.466757 5.46194 186 188 188
-0.38317 -0.874771 5.47715 110 106 107
-0.105836 -0.432139 5.34174 110 108 96
0.0114314 -0.0689315 5.43763 169 64 12
-0.298007 -0.910922 5.40726 72 72 78
-0.08635 -0.794039 5.16766 117 104 86
0.0467135 -0.783248 5.18735 142 84 49
-0.122435 -0.672085 5.19974 158 160 142
-0.65969 -0.666491 5.50718 43 48 47
-0.631387 -0.607923 5.47084 38 40 40
-0.0515241 -0.54925 5.28714 206 201 192
-0.891415 -0.567607 5.43304 22 23 22
-0.979357 -0.470697 5.36469 83 84 82
-1.03623 -0.418543 5.33579 73 74 72
-0.325073 -0.381121 5.48565 63 64 66
-0.269764 -0.380472 5.41827 120 115 108
0.35292 -0.335786 5.13868 128 130 130
-0.0668816 -0.349347 5.33206 167 164 160
-0.282203 -0.357117 5.41582 108 110 105
-0.0975924 -0.333698 5.3782 115 114 108
0.667294 -0.143633 4.95086 32 34 34
-1.02272 -0.101081 5.33286 116 112 108
-0.447696 -0.000474943 5.61458 18 20 20
-0.461723 0.118199 5.60778 84 80 68
0.227051 0.156742 5.39052 15 16 12
-0.312925 0.302532 5.66362 124 97 86
-0.278291 0.32871 5.74239 112 75 66
-0.329947 0.321005 5.73132 20 16 8
0.225779 0.399429 5.53862 169 100 72
0.229001 0.702976 5.21308 86 34 13
-0.181449 -0.762798 5.20389 176 177 165
-0.543473 -0.785359 5.48777 90 28 20
-0.458336 -0.668574 5.5226 168 81 44
-0.747642 -0.60379 5.5717 160 162 161
-1.01268 -0.42613 5.32441 14 14 12
-0.880813 -0.30039 5.25118 174 76 42
-0.298344 0.023441 5.68673 29 30 28
0.182571 0.140761 5.40929 97 100 97
0.584117 -0.495624 5.00791 80 82 82
0.0992292 -0.887423 5.22142 92 84 73
0.4564 -0.642839 5.09315 4 6 6
0.627312 -0.446315 4.97784 3 5 4
-0.0925056 -0.308294 5.41819 37 38 36
-0.139235 -1.11727 5.0996 202 111 58
-0.200299 -0.937944 5.49729 99 72 60
-0.28373 -0.863682 5.33405 162 107 84
0.104676 -0.789253 5.21368 30 28 20
0.00230977 -0.694341 5.183 130 76 53
0.483476 -0.523487 5.11552 71 73 72
-1.0857 -0.360797 5.32481 44 44 42
-0.335724 -0.338271 5.50725 170 171 172
-0.891336 -0.327028 5.24448 170 76 48
-0.341909 -0.304045 5.49997 0 2 2
0.171202 0.0463295 5.44989 130 138 134
0.138914 0.164634 5.43953 144 143 138
-0.218951 -1.08356 5.33048 135 46 32
-0.114567 -1.03397 5.17239 116 158 88
-0.104317 -0.782651 5.16635 170 166 156
-0.58953 -0.757 5.60716 136 130 132
0.62393 -0.622657 5.00048 4 6 6
-0.26 -0.619465 5.35335 144 144 142
-0.805702 -0.562011 5.45376 70 70 70
-0.458622 0.457764 5.78724 158 138 126
-0.0409006 -0.338669 5.35161 90 88 86
-1.07499 -0.339961 5.33793 64 64 62
-0.107652 -0.25935 5.40879 4 6 2
-0.378528 0.33205 5.74686 158 164 154
0.050614 -0.149491 5.43085 36 18 18
0.202563 0.295565 5.44123 122 118 110
-1.13483 -0.087423 5.18807 146 56 29
0.557633 -0.575318 5.01166 150 153 153
0.58429 -0.377965 4.95251 144 146 144
0.126906 0.110035 5.48497 2 4 3
0.113469 -1.08185 5.21669 177 152 144
-0.232907 -0.976688 5.36623 96 82 76
-0.0800634 -0.889362 5.19342 28 6 2
-0.847322 -0.267924 5.3862 15 24 21
-1.19142 -0.0990679 5.233 64 18 11
-0.454537 0.0109412 5.62641 34 36 36
-0.324788 0.362736 5.71384 124 60 40
-0.24373 -1.1771 5.27952 178 162 160
0.611765 -0.609075 4.97637 2 3 4
-0.0598517 -0.762426 5.17884 68 32 16
-0.348568 -0.774156 5.41511 104 83 80
-0.495179 -0.687667 5.67585 120 126 121
0.126618 -0.510048 5.1338 137 141 142
0.115966 0.159292 5.4796 181 182 178
-0.0792506 -0.803829 5.16216 145 104 83
-0.546555 -0.789103 5.44891 100 48 40
-0.618838 -0.727734 5.52122 4 8 7
-0.0836316 -0.663939 5.20614 70 30 18
-0.446768 0.354457 5.76132 137 74 51
0.104959 -1.06556 5.16807 188 161 156
0.275405 -0.836295 5.18661 17 18 19
-0.202167 -0.758785 5.18836 78 74 65
-0.161847 -0.530325 5.33768 124 126 120
-1.00409 -0.470807 5.40107 18 19 16
-0.0126166 -0.910244 5.20323 158 100 68
-0.197823 -0.857014 5.33057 157 108 76
-0.159692 -0.65129 5.27542 154 149 142
-0.118585 -1.01997 5.11586 56 54 3
-0.140249 -1.11829 5.19045 240 173 144
-0.122215 -1.0782 5.13356 197 108 70
-0.0228046 -1.03097 5.1196 29 36 0
-0.229355 -0.904865 5.33807 121 90 76
0.33067 -0.792055 5.12903 77 78 79
0.137631 -0.786537 5.19765 84 86 88
0.00378568 -0.778734 5.16986 159 111 81
-0.423741 -0.790742 5.48923 6 11 12
-0.308635 -0.783094 5.4103 178 100 46
0.387679 -0.708344 5.08149 56 58 58
-0.477415 -0.711296 5.54694 159 74 44
0.110599 -0.674 5.18604 156 156 154
-0.494791 -0.693349 5.50592 58 40 28
-0.255315 -0.621421 5.40994 133 134 132
0.0837021 -0.587896 5.20655 38 36 32
0.177386 -0.563173 5.07456 158 164 168
0.341589 -0.521218 5.06699 56 58 59
-0.725088 -0.529168 5.46641 120 122 120
0.403203 -0.4957 5.05851 160 162 160
0.0156746 -0.504387 5.38045 166 162 156
-0.861325 -0.500033 5.45314 64 66 64
-0.719885 -0.486661 5.41016 42 44 42
-0.0386734 -0.426675 5.34619 180 173 164
0.44651 -0.412019 5.13445 99 101 100
0.585159 -0.408474 4.98778 148 150 150
-0.0681679 -0.417239 5.33728 202 195 184
0.450483 -0.402567 5.13664 152 154 153
-0.0499049 -0.409338 5.32424 186 178 170
0.454629 -0.378749 5.12993 9 10 10
-0.916974 -0.372147 5.27311 80 46 32
-0.489381 -0.324388 5.80695 30 33 34
-0.499065 -0.317169 5.7379 156 158 158
0.433759 -0.269542 5.02522 60 62 62
-1.04839 -0.299516 5.28849 80 82 84
0.165063 -0.2486 5.40049 177 98 62
-0.132068 -0.236383 5.41883 106 110 105
0.137175 -0.231661 5.37118 113 24 0
-0.340959 -0.223052 5.49739 18 20 22
0.11109 -0.191717 5.32936 214 116 68
-0.263578 -0.121554 5.72303 93 50 50
0.404606 -0.154335 4.88517 34 38 38
-0.381857 -0.0570369 5.68646 189 177 176
0.266571 -0.0267456 5.43649 84 44 44
-0.286892 -0.0193528 5.6375 138 138 135
-0.371712 0.0128683 5.63714 9 9 8
-0.359811 0.123731 5.62981 18 16 12
-0.456649 0.222173 5.63313 116 110 98
0.351918 0.381391 5.56663 26 8 2
0.428624 0.528577 5.70286 146 126 112
0.23953 0.499003 5.48852 126 28 2
-0.493709 0.473512 5.57477 136 33 2
0.241812 0.498907 5.41463 100 9 2
0.198313 0.502767 5.34741 118 34 2
0.170416 0.537338 5.36014 138 38 2
0.0581594 -1.30988 5.45216 175 158 152
-0.142981 -1.10762 5.16712 236 177 157
-0.221269 -1.0219 5.20579 172 122 100
-0.194743 -0.930496 5.33763 167 162 166
-0.470265 -0.936212 5.53928 112 71 66
-0.187086 -0.873311 5.33693 212 194 180
-0.143126 -0.840817 5.22544 204 178 166
-0.335711 -0.855397 5.4937 0 6 7
0.200417 -0.808525 5.05749 32 34 36
-0.46753 -0.844092 5.4648 48 10 8
0.211567 -0.786217 5.15931 161 162 164
-0.265997 -0.738021 5.36367 158 110 79
-0.489737 -0.728659 5.5087 24 6 3
-0.904163 -0.566883 5.46447 12 13 10
-0.723516 -0.489339 5.38041 5 7 5
-0.752811 -0.447879 5.44083 103 105 104
0.285601 -0.427539 5.08987 76 78 76
-0.764171 -0.419492 5.49146 12 14 12
-0.0950403 -0.369159 5.35836 180 176 168
-0.275795 -0.35937 5.5761 178 175 167
0.435324 -0.356596 5.0829 151 153 152
-0.350262 -0.348339 5.56795 163 164 165
-0.472222 -0.323888 5.6918 23 30 30
-0.367351 -0.328304 5.53617 16 18 19
0.401311 -0.273308 5.00528 150 153 153
-0.427674 -0.265593 5.63226 44 6 0
0.000896287 -0.262384 5.42964 150 153 153
-0.452967 -0.0555313 5.72271 160 139 131
-0.390335 -0.0736107 5.55429 114 86 75
0.0784778 0.00626027 5.45799 176 171 162
-0.29488 0.0641467 5.73737 4 4 3
-0.47046 0.114214 5.70827 160 156 144
0.42903 0.540927 5.63503 89 54 42
0.232601 0.502617 5.45796 117 24 5
0.177879 0.545151 5.42757 136 35 3
-0.214143 -1.0124 5.21916 176 161 153
0.464003 -0.348888 5.09385 156 158 157
0.0191149 -0.227269 5.44778 78 78 80
-0.28053 -0.102353 5.71995 176 173 168
-0.338412 0.330634 5.7724 8 4 0
0.372547 0.511149 5.48787 106 30 14
-0.0564184 -0.207298 5.41242 166 168 170
-0.130738 -0.823922 5.19179 125 117 102
0.0107474 -0.473986 5.42014 104 102 96
-0.310462 -0.908749 5.40714 45 48 47
-0.501967 -0.846808 5.52744 109 37 24
-0.772041 -0.568136 5.41612 159 161 160
0.190647 -0.791455 5.08146 128 130 130
-0.26435 -0.80099 5.34061 218 166 126
0.388546 -0.730203 5.10425 22 25 26
-0.330434 -0.767424 5.50686 120 88 82
-0.209619 -0.738181 5.21587 80 79 62
-0.468963 -0.688353 5.57732 106 20 2
0.495352 -0.130246 4.85757 130 132 134
