ply
format ascii 1.0
element vertex 191
property float x
property float y
property float z
property uchar red
property uchar green
property uchar blue
end_header
-0.87511 0.310021 0.478867 0 255 0
-1.96531 0.299269 0.590194 0 255 0
0.237394 -0.426631 0.0328106 0 255 0
0.72475 0.073558 0.868667 0 255 0
-2.22122 0.0253763 1.17619 0 255 0
-0.692221 0.0334769 -0.649271 0 255 0
0.2242 -0.600443 0.635867 0 255 0
-2.33937 -0.350916 1.64647 0 255 0
0.289401 -0.161134 0.960217 0 255 0
-0.305854 -1.62634 6.32818 153 85 76
0.0372813 -1.47727 6.054 181 86 50
0.346846 -1.49453 6.25457 179 154 148
-0.166086 -1.08176 6.27767 210 186 177
-0.420904 -1.11016 6.45114 12 19 14
-0.585933 -1.13161 6.62164 4 5 8
-0.0589302 -0.975303 6.1728 54 57 46
-0.022435 -0.899209 6.18472 54 57 47
-0.0140586 -0.866883 6.17446 155 154 144
-0.803504 -0.940901 6.64644 181 190 194
-0.0747925 -0.840083 6.2165 164 167 156
-0.0874707 -0.776135 6.21883 64 63 53
-1.03532 -0.789085 6.67877 108 111 114
-0.838597 -0.764296 6.66389 38 25 24
-0.12307 -0.710086 6.3653 112 112 106
1.37696 -0.670938 6.01798 70 72 72
-0.714229 -0.71761 6.70059 144 84 58
-0.122794 -0.654944 6.40092 113 114 110
-0.320861 -0.655215 6.5252 124 124 122
0.0706165 -0.545711 6.40892 200 196 186
1.40419 -0.507396 6.0542 88 90 90
-0.168559 -0.418045 6.53092 186 184 178
-1.59522 -0.336098 6.30063 76 78 77
0.748003 -0.343235 6.22703 70 73 72
0.127095 -0.359362 6.55943 158 157 150
0.0391802 -0.307283 6.52464 186 180 170
0.00333342 -0.146844 6.50285 81 82 80
-0.0308004 -0.107433 6.5201 64 65 61
0.0796112 -0.00920232 6.62827 0 0 1
-0.775754 -0.00284599 6.91813 48 50 50
-1.90223 0.0821809 6.0956 39 40 38
0.185793 0.0642647 6.62547 124 126 128
-1.91332 0.138672 6.04843 70 70 69
0.228373 0.109816 6.61017 10 8 8
-1.89274 0.316779 6.02196 142 89 70
-0.586146 0.378963 7.07183 185 186 186
0.415294 0.454449 6.88172 160 162 164
0.416835 0.506947 6.90519 26 30 33
0.669816 1.05093 6.77551 139 140 136
-0.108545 -0.847921 6.20628 59 62 50
-0.0286792 -0.832275 6.19788 72 68 60
-0.133245 -0.616917 6.42129 120 122 116
-1.45375 -0.502345 6.57148 165 166 166
-1.59662 -0.2813 6.25174 48 50 48
-0.300718 -0.123794 6.63493 12 12 10
-1.39161 -0.0313858 6.18047 164 72 49
0.138989 0.0247257 6.61505 2 4 6
-0.594237 -0.957856 6.66113 108 106 111
-0.862513 -0.92544 6.59198 78 61 62
-0.807152 -0.933194 6.62179 170 178 184
0.0647323 -0.307458 6.53188 176 170 161
-1.46209 0.041353 6.19279 28 6 0
0.543085 0.968863 6.74981 119 116 112
0.269243 -1.38111 6.28435 158 152 151
-0.461657 -1.17685 6.57348 4 4 2
0.341045 -1.14369 6.32249 80 72 61
0.440217 -1.02164 6.31135 71 74 75
0.0536423 -0.764708 6.22978 69 26 15
1.03896 -0.733353 6.1938 21 23 22
-1.07958 -0.774652 6.7162 112 116 118
1.31828 -0.693374 6.05454 2 4 4
1.1168 -0.654715 6.21472 148 148 150
1.17633 -0.602027 6.25952 19 21 19
0.982403 -0.48927 6.3081 136 138 138
-1.74923 -0.159475 6.27051 2 4 3
-0.403937 0.65448 7.03727 166 165 166
-0.401157 1.08743 7.19029 82 34 28
-0.184336 -0.836017 6.24415 79 81 72
0.0251578 -0.83936 6.18428 170 166 155
1.24523 -0.618874 6.09378 137 140 140
-0.637475 0.557239 6.91562 14 16 14
0.149289 -1.19798 6.19806 182 136 126
-0.119096 -1.19573 6.20471 203 144 104
-0.170204 -0.99837 6.17706 202 180 162
0.423136 -1.01972 6.38169 15 16 19
-0.764581 -0.940966 6.60055 4 7 10
-0.973952 -0.848779 6.71964 174 174 168
1.11975 -0.597404 6.21741 4 6 4
-1.2287 -0.592274 6.64898 159 161 160
-0.13719 -0.505208 6.47551 116 116 112
0.879473 -0.172369 6.25285 12 14 14
-0.0180426 -0.157369 6.47052 116 115 109
-0.496704 -0.0473139 6.72987 110 112 114
0.480915 0.00422028 6.65757 76 24 8
-0.662555 0.872657 6.86808 108 100 91
-0.678543 1.31765 7.05366 152 79 54
0.361995 -1.01692 6.31923 178 168 172
1.40122 -0.539337 6.04518 54 56 58
1.00551 -0.324415 6.22029 118 120 120
-0.00638787 -0.214314 6.44187 194 190 184
-0.692105 0.699984 6.8868 86 78 65
-0.318567 -1.4988 6.35734 180 161 153
-1.47338 -0.510926 6.45142 19 20 20
-1.38039 -0.0374663 6.17421 163 68 40
1.03619 0.132067 5.84054 10 11 11
-0.392326 0.266923 6.99875 175 170 168
-1.63351 0.316133 6.25428 128 126 126
-0.678554 0.589824 6.91889 4 4 4
-0.585925 0.653477 6.86226 160 160 154
-0.684543 0.865787 6.90912 108 101 90
-0.37299 -1.14429 6.43702 194 196 192
-0.214067 -0.485661 6.51053 120 117 112
-0.184035 -0.379282 6.5484 98 96 86
-0.647231 1.75457 6.80714 118 40 16
0.351097 -1.56068 6.32583 111 38 26
-0.316039 -0.220381 6.55961 128 122 113
1.31964 -0.658951 6.03422 8 10 10
0.144772 -1.17503 6.19118 176 150 136
-1.31851 -0.537493 6.76483 126 128 127
-0.313138 -0.212347 6.62355 111 106 98
-0.0139867 -0.182055 6.48855 70 68 62
-0.474357 -0.149133 6.68349 170 171 172
0.996047 -0.0717918 6.19315 106 108 106
0.000452935 -0.00463016 6.60629 160 162 160
0.188447 0.0361117 6.59983 0 1 2
0.359295 0.541635 6.85537 158 156 159
-0.255263 -1.19041 6.45709 102 74 64
1.26652 -0.660859 6.06851 56 57 58
0.57758 0.160544 6.70739 66 32 30
-0.424647 0.580412 7.08011 49 52 52
-0.182197 -1.09548 6.36034 222 206 190
-0.0207382 -0.783514 6.20482 174 175 162
0.615793 -0.418064 6.06085 84 86 88
0.0510426 -0.243629 6.54587 79 74 66
-0.00298943 -0.167504 6.51911 116 114 108
0.547825 1.12813 6.87653 162 127 112
-0.22669 -0.87562 6.57035 126 108 94
0.141762 0.0396456 6.60094 0 1 3
-0.352207 -1.56522 6.38107 178 88 48
0.432443 -0.488478 6.17868 113 116 116
-0.737026 0.321301 6.92046 102 52 40
-0.456286 1.11546 7.11547 141 60 38
0.34338 -0.614754 6.25161 39 44 44
-0.577306 1.07839 7.1766 109 115 106
0.686378 1.66726 6.33249 72 23 6
-0.385482 0.979895 6.99712 142 143 136
1.02545 -0.512276 6.2194 91 94 93
-0.477564 1.04936 7.0589 14 8 2
-0.131187 -0.540439 6.45645 118 117 114
-0.675102 0.70339 6.879 50 44 36
-0.061309 -0.912515 6.17133 174 174 164
0.441685 0.545453 6.85707 6 8 8
-0.688548 1.11073 7.13786 169 100 72
-0.248764 -1.45083 6.25014 126 4 0
0.559936 1.13838 6.86011 146 126 118
0.348395 -1.64991 6.45816 178 157 152
-0.096207 -1.55303 6.19038 236 173 148
-0.147299 -1.46304 6.23989 176 158 138
-0.130604 -1.43638 6.27517 58 48 2
-0.0567956 -1.00144 6.1778 184 176 165
0.351614 -0.999556 6.37702 26 20 17
0.423015 -0.982834 6.26196 64 64 66
0.490897 -0.968827 6.15272 108 108 110
0.884102 -0.8968 6.17967 17 18 19
-0.203943 -0.875091 6.26347 72 73 60
0.35419 -0.816767 6.22903 162 158 154
-0.872983 -0.787063 6.74231 187 154 146
-0.194633 -0.772837 6.38889 134 130 121
0.320267 -0.61199 6.51573 164 162 158
1.24002 -0.586073 6.06313 52 53 54
0.372733 -0.564846 6.38887 73 74 75
1.26178 -0.579636 6.08495 141 143 142
1.28361 -0.492456 6.06231 152 154 152
0.966056 -0.484565 6.23625 160 162 160
0.667437 -0.449441 5.94586 104 108 108
-1.37396 -0.397567 6.42579 71 73 70
1.30267 -0.339925 6.08786 154 156 156
-1.22867 -0.258341 6.57251 6 8 6
1.01563 -0.276112 6.22405 1 2 2
0.1012 -0.231614 6.61975 182 178 172
-0.502771 -0.193924 6.8515 40 42 42
0.0133008 -0.182955 6.48118 90 86 78
-0.33319 -0.171356 6.57483 134 132 125
0.920742 -0.16968 6.24912 165 167 166
-0.822145 -0.0876939 7.03958 156 158 158
-1.71527 -0.106436 6.1531 96 98 96
-1.66804 -0.0271517 6.12642 76 79 81
0.445805 0.0251209 6.63473 225 139 102
0.378203 0.086306 6.51945 218 118 68
-0.395524 0.245098 7.15414 102 60 60
0.634575 0.368607 6.72537 88 52 51
0.630245 0.405774 6.75318 183 176 168
