ply
format ascii 1.0
element vertex 171
property float x
property float y
property float z
property uchar red
property uchar green
property uchar blue
end_header
-4.39021 -0.726224 1.23632 0 255 0
-4.61979 -0.901704 1.03154 0 255 0
-3.75198 -0.580935 0.555308 0 255 0
-2.96929 -0.58098 0.138681 0 255 0
-1.97333 -0.479778 -0.217943 0 255 0
-0.919315 -0.343051 -0.502091 0 255 0
0.106705 -0.239892 -0.608993 0 255 0
1.05417 -0.268392 -0.533024 0 255 0
2.07908 -0.185416 -0.251725 0 255 0
2.44892 -0.232199 -0.168951 0 255 0
2.03708 0.343709 -0.116985 0 255 0
1.16802 0.509688 -0.103795 0 255 0
-0.00496933 0.398064 -0.167515 0 255 0
-1.11177 0.247714 -0.322974 0 255 0
0.169368 -0.916359 5.1992 0 255 0
2.17991 -1.07741 9.63124 126 122 82
-2.66978 -1.56451 11.0162 161 160 112
1.84667 -0.729195 9.911 214 218 184
0.203042 0.803507 8.48411 179 162 151
0.705487 1.89667 7.76037 152 128 118
-1.07001 2.32237 10.0049 161 136 138
-2.43079 -1.65681 12.3533 148 147 100
-2.14942 -1.0868 10.5664 94 80 53
1.03664 0.501072 9.16572 197 152 130
-0.798338 -1.17801 10.007 164 169 125
0.865198 0.644264 8.94404 178 161 152
1.00659 0.559347 9.10758 94 54 30
0.0507884 2.08014 9.44698 135 114 112
-0.996225 -0.157876 7.79382 54 44 24
-1.59689 -0.301743 5.1495 185 185 145
-1.00035 -0.162523 7.77467 44 37 16
-3.16798 -3.3451 9.64823 86 86 64
-0.970867 -0.194693 7.7586 36 26 10
-2.27684 -1.43608 10.901 128 128 82
-3.04757 -3.20365 9.78115 88 90 60
-0.512292 3.08525 10.2054 92 50 41
0.176464 0.791186 8.38275 156 134 126
2.02393 -0.684026 9.78536 172 168 130
1.85147 -0.731567 9.94431 182 188 150
7.91354 -0.696785 34.3307 194 186 151
0.422038 0.42824 8.90156 73 68 56
-0.554867 1.72667 9.2111 126 101 95
-0.531053 2.20671 9.55009 124 100 98
-0.0018752 0.189073 10.0217 12 8 2
-0.509745 0.587636 8.39818 102 70 63
0.274501 0.877289 8.41165 166 146 142
-0.507035 2.56868 9.77601 130 102 99
-0.238279 3.08471 10.1396 64 30 24
0.0100938 0.190043 10.1199 14 11 4
-0.563561 1.47546 9.07168 114 86 80
-0.514189 2.58598 9.79941 114 86 81
2.05144 -0.711958 9.77251 164 169 127
0.0663215 0.0963332 10.1787 12 6 5
-1.35527 0.806385 9.09391 68 30 15
-1.59711 -0.413017 11.0789 190 180 150
0.754604 1.87257 7.42037 166 146 135
-1.45453 0.803959 10.264 162 115 84
-1.01947 -1.39485 10.0403 97 104 55
-2.00179 -0.896652 10.8293 118 99 75
0.120511 1.13795 8.8226 110 86 82
-2.04705 1.57009 6.52552 107 92 80
1.9312 -0.632803 9.74811 48 30 5
0.158406 0.774446 8.63806 30 16 4
0.534118 2.47258 9.97076 106 75 72
0.0995103 0.871907 8.56343 96 63 48
1.93053 -3.66258 9.9093 71 86 50
-0.166769 0.0893519 10.1652 114 114 108
-0.209838 -0.168536 9.89317 126 126 128
0.0301797 2.3783 9.59389 120 90 88
-3.19045 -3.51592 9.70632 86 88 47
1.18721 -0.486267 11.0541 148 145 108
-1.00034 -0.13523 4.54575 126 119 94
-2.94988 -1.48807 10.9957 46 36 7
-0.569902 -0.229901 9.86132 32 24 4
-0.828516 0.566992 8.94432 30 6 0
-1.12621 1.00467 8.96786 160 114 103
-0.569242 1.06121 8.80122 96 60 55
-0.568964 1.27172 8.9146 112 84 80
-0.093665 1.47477 8.93978 115 81 76
-1.26633 1.45619 9.45733 120 88 79
0.611971 2.13197 9.74361 125 100 98
0.540319 2.51785 9.98309 119 92 90
0.449265 2.85495 10.302 67 36 33
0.00913414 2.72776 9.86009 126 94 94
0.303115 3.03184 10.2207 78 47 40
-0.964924 -2.9343 10.6505 95 101 68
-1.11786 -0.0683243 7.79978 109 118 88
0.930491 0.827284 8.91728 120 94 86
-0.793771 0.84489 8.69326 78 30 12
0.328691 3.04975 10.3291 78 46 40
-1.01252 -3.6333 11.1642 96 102 58
0.00798974 2.81555 9.92489 120 94 92
-0.849142 0.545387 8.87867 20 6 2
-1.09194 2.26726 9.96263 136 98 90
0.0286143 2.38985 9.64316 110 80 80
2.39227 -2.21759 8.24837 93 95 50
-3.17165 -3.32786 9.68173 102 102 83
-0.754488 -1.09769 9.77158 152 148 106
-1.67214 -1.08948 10.7752 71 74 30
-0.969634 -0.830784 9.01821 95 100 60
-1.02544 -0.808692 9.32622 105 108 70
-2.07321 -0.872456 10.513 142 129 90
-1.14407 -0.662983 8.57087 159 158 122
-1.89554 0.296727 9.73466 62 29 8
-2.09115 0.330477 9.89069 164 124 93
0.717544 1.2381 7.50069 96 94 74
-0.518561 2.14963 9.33341 112 74 66
-0.49028 2.93644 10.0034 124 91 80
2.74804 -2.35205 7.96296 158 158 109
-0.759621 -1.11529 9.82513 164 162 118
1.4188 -0.530446 10.9884 64 54 28
-0.785384 -1.11619 9.67456 158 157 115
1.15055 -0.359854 10.1816 148 160 118
-1.24361 0.139408 7.61071 113 120 94
0.831923 0.694631 8.94633 49 25 10
-1.30024 2.77147 10.9684 70 26 16
-0.504457 2.62038 9.80951 116 90 88
9.61595e-05 2.80037 9.92522 110 85 83
2.70515 -2.29917 7.94129 138 138 95
-2.88574 -2.99372 9.81732 106 101 80
-0.789762 -1.13958 9.73796 163 162 119
1.36046 -0.00343831 9.2355 148 150 118
-2.35867 1.54978 6.564 64 58 35
-0.528163 -0.577723 9.37347 32 40 20
-2.33552 1.49919 6.50939 70 69 44
-2.08935 -0.750503 10.5776 150 150 92
1.57244 -0.145269 10.1524 140 128 104
0.364828 -0.71274 9.22736 96 99 83
-1.34307 1.0362 9.21033 114 80 72
0.656594 2.81931 10.2768 120 94 90
-2.09832 -0.834546 10.3457 88 74 37
1.33799 -0.594624 10.8607 62 58 30
-1.4171 -1.46355 9.74384 78 79 52
0.0680828 1.80797 9.20226 120 95 90
1.99781 -1.90315 8.2411 90 93 70
0.618976 2.10495 9.68277 128 106 105
-1.16969 1.91249 9.74796 126 104 98
0.84533 0.678269 9.00175 64 38 28
1.29127 0.0506964 9.47966 52 26 14
1.64254 -1.73379 8.44258 90 96 68
1.23913 -0.326993 11.1706 137 127 96
2.62888 -2.25178 7.93763 158 158 114
1.21364 -0.342618 11.261 138 126 97
-1.23726 0.123416 7.69084 104 110 86
0.5735 0.732292 8.15994 142 122 110
1.63853 -1.72745 8.42269 90 96 68
0.492658 -0.578563 11.8274 170 154 121
1.32459 -0.409519 11.0282 144 146 113
1.21011 -0.536123 11.1006 142 159 116
1.30971 -0.528259 10.7627 55 32 16
1.42269 -0.456305 11.3777 142 151 114
0.599288 0.790898 8.17295 137 116 104
-2.13248 -0.449225 9.90794 148 142 84
2.77268 -2.36096 7.90105 96 100 55
2.46381 -2.24764 8.35073 148 150 109
0.0333117 2.46286 9.67481 121 97 94
-1.11704 -0.0841246 7.89516 118 127 93
-3.69169 -3.99593 9.74926 92 90 48
-0.87217 -4.10047 27.2828 92 98 53
0.0080428 2.74796 9.86828 121 102 98
0.471016 0.494245 8.69838 49 48 37
-3.04247 -3.36961 9.73601 107 104 68
-2.67604 -2.67997 9.66195 45 44 20
-0.543484 2.97072 10.0639 90 41 23
0.162155 0.73446 8.39041 82 66 44
-0.0961742 3.18413 10.2614 76 38 30
-0.0557821 -0.0816442 3.30049 90 84 48
0.29273 -0.509541 10.2132 167 161 127
-3.36141 0.0590573 7.29263 160 148 120
-2.4038 -0.573124 9.81373 150 142 82
-1.33411 -1.69966 9.90199 106 110 66
