ply
format ascii 1.0
element vertex 301
property float x
property float y
property float z
property uchar red
property uchar green
property uchar blue
end_header
0.182638 -0.265528 2.45747 0 255 0
0.129533 -0.26127 2.46789 0 255 0
0.236835 -0.307993 2.42666 0 255 0
0.266797 -0.283409 2.46873 0 255 0
0.11585 -0.275621 2.50063 0 255 0
0.184124 -0.276053 2.39693 0 255 0
0.237659 -0.317612 2.4583 0 255 0
0.110365 -0.295991 2.52546 0 255 0
0.243896 -0.294577 2.47538 0 255 0
0.256423 -0.394783 2.75658 106 76 63
0.235489 -0.382433 2.7592 153 85 76
0.252684 -0.375327 2.74294 181 86 50
0.233604 -0.377662 2.76225 142 63 40
0.270013 -0.378092 2.75213 179 154 148
0.249738 -0.371821 2.7506 172 210 158
0.263758 -0.372329 2.74914 46 13 8
0.271458 -0.361995 2.75728 90 85 80
0.221278 -0.357397 2.78202 78 44 37
0.244968 -0.354135 2.7567 210 186 177
0.232391 -0.354979 2.76729 12 19 14
0.224537 -0.355834 2.77726 4 5 8
0.284445 -0.356176 2.75021 8 10 10
0.229228 -0.35274 2.76856 0 2 6
0.280337 -0.352608 2.74732 10 12 10
0.250508 -0.348716 2.75074 54 57 46
0.273685 -0.352843 2.75721 114 112 106
0.256771 -0.347789 2.74893 68 30 10
0.215329 -0.349361 2.77515 94 46 38
0.274976 -0.351315 2.75564 131 137 135
0.220638 -0.347597 2.77718 6 13 14
0.252828 -0.344884 2.75131 54 57 47
0.206015 -0.347249 2.79133 96 30 32
0.207608 -0.346116 2.78815 112 104 95
0.253354 -0.343185 2.75078 155 154 144
0.214075 -0.344894 2.7801 181 190 194
0.248754 -0.342238 2.75326 70 72 60
0.229229 -0.345986 2.78351 148 140 141
0.250505 -0.341612 2.75335 164 167 156
0.281067 -0.342761 2.74561 104 106 105
0.214576 -0.340931 2.7791 5 7 8
0.21092 -0.340456 2.78295 51 15 8
0.244794 -0.339345 2.75689 175 174 158
0.248233 -0.338373 2.75405 183 182 170
0.250137 -0.338188 2.75369 64 63 53
0.252758 -0.337656 2.75181 159 164 143
0.216264 -0.338525 2.78208 14 2 0
0.25271 -0.337575 2.75552 86 85 70
0.202723 -0.335958 2.7833 108 111 114
0.217633 -0.337406 2.78182 129 64 46
0.249353 -0.3349 2.76181 112 112 106
0.326708 -0.338429 2.73585 70 72 72
0.213562 -0.334221 2.78219 107 108 108
0.217289 -0.335025 2.78389 64 30 20
0.321948 -0.338199 2.74048 84 86 85
0.220024 -0.333591 2.78287 144 84 58
0.249803 -0.33207 2.76382 113 114 110
0.193604 -0.328698 2.78652 164 166 164
0.240061 -0.33154 2.77147 124 124 122
0.273099 -0.331706 2.75255 56 58 60
0.242955 -0.329819 2.76951 132 133 130
0.193265 -0.326593 2.78383 22 24 24
0.277745 -0.327296 2.75325 140 142 142
0.260502 -0.327142 2.76343 200 196 186
0.177801 -0.319427 2.77785 54 56 56
0.180287 -0.319304 2.77366 5 6 6
0.277778 -0.326134 2.74965 48 50 50
0.185501 -0.316184 2.77406 50 52 52
0.187969 -0.315426 2.77273 121 123 121
0.172486 -0.312038 2.77063 54 56 54
0.198392 -0.314891 2.77174 82 84 82
0.188114 -0.312659 2.76697 46 48 46
0.250688 -0.320487 2.77055 128 127 120
0.249147 -0.319672 2.77142 186 184 178
0.330277 -0.323202 2.73776 0 0 1
0.322754 -0.319999 2.73283 126 128 127
0.296049 -0.318864 2.75052 70 73 72
0.265122 -0.317898 2.77152 158 157 150
0.254704 -0.314899 2.7692 202 202 194
0.255601 -0.314388 2.76769 119 118 108
0.173209 -0.304459 2.76262 55 57 54
0.260534 -0.314685 2.77021 186 180 170
0.262211 -0.314295 2.76927 162 156 150
0.245589 -0.307608 2.77264 119 118 116
0.167232 -0.296033 2.76077 96 98 96
0.259245 -0.30601 2.76951 81 82 80
0.233772 -0.303768 2.78376 1 4 8
0.270094 -0.306903 2.77577 72 75 75
0.2577 -0.30381 2.77065 64 65 61
0.266092 -0.30466 2.77923 163 165 163
0.172984 -0.291669 2.76112 136 86 63
0.243072 -0.300775 2.78906 110 116 110
0.284746 -0.302589 2.77766 175 160 156
0.23074 -0.297769 2.78754 94 95 92
0.286836 -0.301866 2.77831 116 70 52
0.264522 -0.299341 2.77601 0 0 1
0.221157 -0.29607 2.79614 48 50 50
0.258662 -0.298497 2.77508 88 90 90
0.222619 -0.295695 2.7949 204 186 184
0.244609 -0.297078 2.7959 184 175 176
0.157977 -0.284935 2.75855 39 40 38
0.159853 -0.285441 2.75807 136 136 135
0.270437 -0.295904 2.77546 124 126 128
0.278907 -0.29527 2.7706 74 8 0
0.271438 -0.294353 2.77558 96 100 105
0.272797 -0.293642 2.7745 10 8 8
0.164906 -0.28031 2.75809 109 65 46
0.23186 -0.278599 2.79745 115 99 84
0.225078 -0.278128 2.79818 112 75 68
0.237011 -0.278365 2.7924 164 166 164
0.233625 -0.277023 2.80398 185 186 186
0.237041 -0.276293 2.79791 28 32 28
0.2765 -0.278064 2.78169 183 144 133
0.29474 -0.278668 2.78218 168 162 158
0.335413 -0.282261 2.7612 66 68 68
0.287826 -0.276946 2.78754 50 56 63
0.285643 -0.276835 2.7886 160 162 164
0.337568 -0.280658 2.76727 93 94 95
0.286051 -0.274117 2.78994 26 30 33
0.285654 -0.273878 2.78672 97 101 104
0.233089 -0.269127 2.80107 76 78 76
0.334257 -0.276636 2.7657 54 56 56
0.286406 -0.272101 2.78213 54 58 56
0.287084 -0.269226 2.78372 88 91 92
0.331201 -0.273087 2.74667 111 112 110
0.333357 -0.273824 2.73584 18 20 19
0.329013 -0.271616 2.74089 71 73 71
0.228018 -0.259711 2.79325 58 54 46
0.28508 -0.264344 2.78521 10 11 10
0.230601 -0.258766 2.7961 22 16 9
0.282809 -0.262211 2.78823 109 110 109
0.287372 -0.259289 2.78029 14 14 12
0.230477 -0.252663 2.7956 54 49 38
0.288688 -0.25768 2.78226 186 186 178
0.229039 -0.250113 2.79763 100 94 82
0.290418 -0.253282 2.7831 62 60 46
0.29116 -0.251744 2.78355 98 96 83
0.29362 -0.247899 2.78566 136 132 128
0.231292 -0.239094 2.80964 121 60 36
0.301107 -0.246133 2.78269 139 140 136
0.234766 -0.237173 2.80933 29 2 0
0.299673 -0.239511 2.79365 20 2 1
0.255313 -0.227506 2.81792 91 48 35
0.22746 -0.222554 2.78924 130 28 0
0.228373 -0.218119 2.78377 237 145 102
0.238364 -0.364735 2.76696 106 98 95
0.229064 -0.356097 2.77182 104 112 112
0.24881 -0.353687 2.75657 182 163 146
0.280879 -0.353007 2.74742 11 12 11
0.221895 -0.346372 2.77762 11 14 16
0.243441 -0.342197 2.75388 58 59 48
0.229024 -0.347596 2.78791 32 22 20
0.24864 -0.341857 2.753 59 62 50
0.252858 -0.341345 2.75211 72 68 60
0.245015 -0.33968 2.75472 103 108 97
0.203577 -0.337266 2.78079 4 9 2
0.208512 -0.338072 2.78351 4 1 0
0.246136 -0.337552 2.75999 118 118 110
0.24954 -0.330062 2.76504 120 122 116
0.181433 -0.318805 2.7804 165 166 166
0.246197 -0.323469 2.77035 98 97 90
0.281869 -0.322824 2.74845 32 35 35
0.198743 -0.315195 2.77349 33 34 34
0.295551 -0.319805 2.75011 78 82 80
0.173268 -0.30577 2.76433 48 50 48
0.26535 -0.314322 2.772 87 86 84
0.306231 -0.310228 2.75115 132 134 134
0.233425 -0.303261 2.78329 0 5 10
0.180654 -0.294894 2.75808 114 20 0
0.233862 -0.301425 2.78015 0 6 9
0.259735 -0.30311 2.77558 20 22 18
0.184737 -0.293304 2.75995 164 72 49
0.266916 -0.297493 2.76766 4 6 6
0.267743 -0.297781 2.77509 2 4 6
0.24206 -0.283489 2.79604 162 161 161
0.242544 -0.280864 2.79622 56 58 60
0.231728 -0.278636 2.80462 58 40 28
0.281799 -0.276813 2.78583 52 37 35
0.286911 -0.276977 2.78137 25 34 38
0.22843 -0.26458 2.79739 17 16 14
0.286535 -0.26909 2.78097 88 91 92
0.327704 -0.269735 2.73882 18 20 18
0.286568 -0.25935 2.78065 32 30 24
0.229836 -0.250369 2.79562 93 86 75
0.289976 -0.256214 2.78252 183 180 174
0.251996 -0.229832 2.81239 150 126 114
0.233359 -0.384964 2.76058 164 62 15
0.239274 -0.376483 2.75368 95 0 0
0.238512 -0.373167 2.75473 104 2 0
0.238501 -0.364323 2.76668 102 94 90
0.271588 -0.360756 2.7569 84 78 69
0.229446 -0.359195 2.77386 4 10 10
0.228936 -0.356688 2.77473 110 118 120
0.21971 -0.356315 2.7806 50 11 2
0.255232 -0.351632 2.75293 170 155 134
0.245413 -0.347203 2.75546 48 52 44
0.221363 -0.347419 2.777 8 14 14
0.250452 -0.34502 2.75126 176 178 170
0.255664 -0.34446 2.74882 132 128 112
0.225079 -0.346727 2.77972 108 106 111
0.210733 -0.343678 2.77741 78 61 62
0.213777 -0.344406 2.77877 170 178 184
0.246356 -0.342185 2.75356 176 179 167
0.250865 -0.341633 2.75312 174 176 165
0.256378 -0.342614 2.75224 177 172 160
0.205876 -0.34239 2.78026 118 131 133
0.257118 -0.337724 2.75394 60 18 8
0.217837 -0.335388 2.78319 52 3 0
0.216151 -0.333218 2.7854 160 166 170
0.315937 -0.334316 2.75032 6 8 6
0.250031 -0.325762 2.76614 110 110 106
0.188791 -0.320114 2.7785 52 54 54
0.198107 -0.318657 2.77241 159 161 160
0.188097 -0.315143 2.77287 106 108 106
0.329828 -0.323591 2.73784 2 4 4
0.261919 -0.314824 2.77045 176 170 161
0.264916 -0.313998 2.77136 86 86 84
0.261869 -0.3116 2.77004 65 62 54
0.236266 -0.307727 2.7842 24 26 26
0.306766 -0.310102 2.75166 128 130 130
0.235116 -0.304902 2.78127 110 111 114
0.176131 -0.295394 2.76097 145 77 48
0.270846 -0.306442 2.77898 30 33 33
0.232967 -0.301964 2.78106 0 7 11
0.227064 -0.301722 2.7979 159 142 136
0.24506 -0.301319 2.77955 8 9 8
0.284485 -0.302477 2.78003 72 38 22
0.181454 -0.289182 2.76094 28 6 0
0.245519 -0.29758 2.79694 172 171 171
0.267727 -0.297485 2.77245 4 6 9
0.247618 -0.294093 2.79947 64 22 20
0.157296 -0.281575 2.75521 94 95 94
0.223877 -0.288687 2.79821 101 36 19
0.225195 -0.278781 2.7989 102 66 57
0.230358 -0.278496 2.79929 51 38 28
0.234945 -0.278338 2.7895 164 164 156
0.17364 -0.270662 2.76414 0 2 3
0.295829 -0.282086 2.78057 68 40 36
0.239422 -0.271947 2.7986 94 96 96
0.292774 -0.271095 2.78415 46 48 48
0.282992 -0.270055 2.78399 4 5 6
0.33263 -0.273883 2.75982 20 22 21
0.285628 -0.264895 2.78525 2 2 1
0.290354 -0.264034 2.77889 162 165 162
0.289579 -0.244329 2.79012 164 172 162
0.304733 -0.245593 2.78559 41 22 14
0.240492 -0.235223 2.80439 10 4 2
0.234439 -0.224099 2.78702 94 16 3
0.228689 -0.217595 2.78557 232 140 96
0.26659 -0.371846 2.75433 158 152 151
0.230604 -0.358627 2.77387 4 4 2
0.271632 -0.35969 2.75638 80 72 61
0.287907 -0.358323 2.75251 44 46 46
0.219105 -0.356489 2.78343 32 4 0
0.248758 -0.352158 2.75515 169 173 162
0.277307 -0.353635 2.75549 71 74 75
0.25798 -0.34716 2.75066 54 24 8
0.205124 -0.341798 2.78024 124 137 138
0.257653 -0.338202 2.75339 69 26 15
0.200662 -0.335096 2.78554 112 116 118
0.323706 -0.339456 2.73801 2 4 4
0.211285 -0.332441 2.78195 18 24 24
0.314118 -0.336949 2.74765 148 148 150
0.308247 -0.327807 2.75357 136 138 138
0.165861 -0.298766 2.76647 2 4 3
0.268712 -0.300857 2.77346 128 132 132
0.317699 -0.301622 2.76111 22 24 23
0.264041 -0.297473 2.77926 158 162 162
0.272593 -0.296135 2.77623 104 106 106
0.276815 -0.295426 2.77124 49 13 10
0.272705 -0.292227 2.77795 18 10 8
0.230788 -0.276258 2.80079 13 18 24
0.335828 -0.280419 2.76458 110 112 112
0.3323 -0.273019 2.74992 104 106 104
0.244241 -0.263121 2.80188 166 165 166
0.249356 -0.260183 2.80148 96 88 71
0.252481 -0.231958 2.81286 142 137 130
0.231479 -0.227417 2.79042 112 16 3
0.289488 -0.357784 2.75619 31 34 32
0.255585 -0.341902 2.75102 170 166 155
0.254491 -0.337168 2.75888 96 87 74
0.262774 -0.333661 2.76812 142 142 132
0.320347 -0.335289 2.74054 137 140 140
0.278164 -0.332954 2.76038 58 60 62
0.270858 -0.282627 2.77803 172 62 6
0.245256 -0.264932 2.80269 162 164 166
0.285371 -0.266755 2.78487 2 3 2
0.240442 -0.238833 2.80007 12 10 2
0.267771 -0.380578 2.75279 91 31 18
0.254365 -0.34445 2.74795 142 146 133
0.260482 -0.320512 2.7674 104 98 86
0.295254 -0.315166 2.7504 4 6 6
0.259694 -0.301252 2.77152 1 2 1
0.230862 -0.267025 2.7962 14 16 14
0.237492 -0.237514 2.80259 8 10 4
0.235778 -0.209156 2.77665 106 34 8
0.304905 -0.212649 2.76765 89 24 4
0.234763 -0.353977 2.76456 172 110 86
0.215867 -0.344942 2.77739 4 7 10
0.164094 -0.273328 2.73996 121 20 0
0.158162 -0.272502 2.7777 156 88 61
0.314808 -0.31104 2.75175 158 160 160
