ply
format ascii 1.0
element vertex 264
property float x
property float y
property float z
property uchar red
property uchar green
property uchar blue
end_header
-3.69649 -1.40433 0.673276 0 255 0
-3.81671 -0.698347 0.483751 0 255 0
-2.9731 -0.491834 0.0581609 0 255 0
-2.3088 -0.417349 -0.314789 0 255 0
-1.35244 -0.352796 -0.628678 0 255 0
-0.393969 -0.213877 -0.869372 0 255 0
0.558536 -0.141777 -0.967305 0 255 0
1.43624 -0.186921 -0.85519 0 255 0
2.41388 -0.0911798 -0.603707 0 255 0
2.65161 -0.0105336 -0.516789 0 255 0
2.30751 0.492328 -0.535894 0 255 0
1.56611 0.609651 -0.41634 0 255 0
0.449297 0.451714 -0.514598 0 255 0
-0.557487 0.292296 -0.702143 0 255 0
-0.329458 0.593688 -1.02456 0 255 0
-2.47848 -3.00809 8.75758 178 175 155
-2.49527 -2.89798 8.69957 142 142 118
-0.784347 -1.20201 8.84515 159 158 128
-1.23789 -1.95463 9.02439 190 191 152
-2.83804 -3.45241 8.7941 154 152 104
-2.3952 -2.80336 8.73463 128 128 103
-2.06459 -2.65086 8.82081 129 132 109
-1.17686 -1.60159 8.82647 134 136 114
-1.14319 -1.57158 8.8484 138 136 116
-0.973769 -1.39656 8.8563 136 134 112
0.612279 0.7305 7.59416 168 148 140
2.29258 -0.727411 8.8755 178 180 142
2.26151 -0.677241 8.90374 81 60 31
1.35729 0.46468 8.24134 161 114 88
0.516439 1.26832 8.06618 94 64 60
2.37013 -0.664126 8.92737 119 102 66
0.299192 -0.236023 10.1731 142 142 132
-0.747252 -1.23112 8.90183 111 114 82
2.20103 -3.55363 9.01301 90 101 60
-2.17069 -1.47154 9.99353 98 96 50
-1.03322 -1.09315 8.66326 114 115 88
0.727456 -0.699325 8.29412 112 115 102
-0.115072 0.813361 7.90289 71 34 20
-0.0964609 1.58069 8.2699 128 101 96
-0.0922435 1.61461 8.30267 126 101 95
0.450765 1.85585 8.44541 46 20 16
-0.0595967 2.13164 8.64771 119 92 88
0.220892 2.88064 9.193 64 30 26
0.212843 2.87461 9.19938 83 49 44
0.358882 2.95375 9.41758 98 65 62
-0.00403222 2.4005 8.82743 78 27 22
-0.10675 0.570259 7.65192 112 78 66
-0.0935173 1.77843 8.39183 100 62 54
0.753678 1.24653 8.16402 44 18 14
-0.963492 -1.38346 8.8366 110 108 85
-1.16408 -1.58544 8.83041 96 96 75
-1.36087 -1.81039 8.81995 92 92 70
-0.809298 -1.22421 8.8555 100 100 74
2.16244 -0.553591 8.9892 55 52 20
0.568558 -0.3777 8.86083 32 20 12
0.479639 1.95693 8.50999 118 94 94
0.503395 1.25179 7.99084 76 50 46
2.8184 -2.21192 7.3365 86 84 42
-2.24582 -2.67634 8.7469 100 100 76
-2.69047 -3.14411 8.85789 62 60 40
0.997074 -0.405185 8.90457 104 77 48
0.156277 -1.33638 9.17755 154 154 108
-0.938983 -1.36431 8.85717 90 90 64
-0.806664 -1.2305 8.84885 84 88 58
-0.659987 -1.09069 8.87377 84 88 56
1.5089 -0.52587 10.103 149 146 108
1.35586 -0.429084 10.0821 154 148 114
-0.0698011 -0.147383 8.87676 64 60 40
1.23906 0.588028 8.0527 152 124 114
-0.115438 0.994717 7.91418 86 53 48
-0.111794 1.19633 8.03085 109 85 80
-0.0794857 1.79819 8.41884 104 64 56
0.449385 2.54483 8.93582 127 98 95
-0.492363 2.53862 9.27187 107 78 76
-2.2673 -2.92631 8.83285 89 90 54
-1.63152 -0.887401 9.46358 75 55 36
0.508256 0.807563 7.71101 110 72 58
0.328249 1.37091 8.06318 92 60 56
-0.0100981 2.78548 9.16453 119 84 75
-0.0729891 2.79927 9.04641 86 40 26
-0.171064 2.90713 9.32635 106 60 43
-0.0808781 -0.664004 8.19129 34 42 13
-1.58275 -2.28875 8.91934 110 114 70
-1.48557 0.386362 9.10285 87 46 18
-0.596091 2.12653 9.09044 94 46 33
-2.38799 -2.78741 8.7005 96 92 68
-0.352092 -2.90424 9.85689 127 131 84
-2.66432 -1.28064 10.313 112 96 44
1.63915 -0.617227 9.9891 133 133 99
-1.58904 0.292986 8.82101 162 124 96
-0.0713031 2.04851 8.56982 122 96 95
-0.337608 -1.05617 8.92689 142 144 100
0.357583 -0.0235454 9.03131 62 67 50
-0.0961106 2.74057 9.05602 71 25 13
-0.343781 -1.97262 9.16128 99 110 70
1.75146 -0.533306 9.12316 140 154 114
-0.14825 -0.233217 8.9537 32 24 4
-0.0906968 -0.0291817 8.59085 74 77 62
1.20239 0.548728 8.10046 134 110 97
1.15651 0.560919 8.12876 56 28 16
1.04877 2.73491 9.62478 92 64 60
-0.469479 2.50215 9.23385 56 16 12
1.67564 -0.558214 9.94306 75 56 37
1.21885 0.517817 8.14712 30 10 1
-0.126798 0.985895 7.91379 75 38 32
0.468189 1.0768 7.93749 22 7 4
0.229721 2.95526 9.18934 120 84 76
-1.88226 -0.496012 8.60856 142 138 79
-0.224971 0.647925 7.87776 64 26 18
-0.673311 -2.47202 9.53549 106 114 70
-0.416976 -2.30401 9.39342 91 104 62
0.953085 2.27217 8.99928 129 102 99
-0.070663 2.50752 8.88591 59 19 10
-1.04548 -1.10412 8.66164 98 96 68
-0.165256 0.549015 7.51185 98 66 56
-0.657039 0.942881 8.09674 123 78 66
-1.65933 -0.728912 9.28518 137 124 80
-0.64361 -0.057201 7.00406 108 120 88
1.2199 0.619369 8.04537 35 12 3
0.939528 0.616931 7.59974 104 88 66
-0.954453 0.486184 6.46538 108 114 92
0.921172 2.29244 9.03914 55 25 24
0.936239 2.32258 9.00507 114 86 85
-0.031908 2.16486 8.65572 58 16 8
0.908819 2.63272 9.3135 106 76 74
-0.355222 -1.96922 9.12145 85 98 58
2.21193 -0.668689 8.89968 37 28 6
-1.59637 -0.840954 9.61688 148 134 88
-1.64283 -0.787398 9.47124 92 77 42
-0.754828 0.132132 6.73712 94 102 74
-1.2389 0.846159 6.37802 100 100 80
0.880799 2.29548 9.01972 73 38 38
1.45984 -0.567061 9.60331 134 140 102
1.0238 0.699365 7.61131 151 126 122
-0.149318 2.83523 9.3232 98 44 28
0.943338 -0.68586 9.97766 158 166 116
0.492803 1.70478 8.34569 110 86 81
0.411764 1.05761 7.92466 50 18 14
-0.648996 -3.48766 10.2022 98 104 63
-0.17147 0.818475 7.99541 57 18 8
0.45756 1.29688 8.16558 37 14 10
-0.787381 1.37809 8.61018 104 71 61
-0.233233 -0.313367 8.20245 54 38 20
0.453473 2.22399 8.72966 104 75 73
2.95188 -2.27492 6.958 150 152 111
2.9367 -2.25604 7.0382 64 72 26
1.20745 -2.71633 8.70009 134 141 98
0.911932 -2.47857 7.86478 105 109 62
2.77037 -2.14626 7.03181 157 156 110
0.064876 -1.44562 9.11991 150 152 104
-1.99992 -1.43678 9.99623 112 112 57
2.27962 -0.644043 8.75268 118 93 66
1.54038 -0.417532 9.00312 98 112 72
1.30758 -0.363919 10.0847 32 12 2
1.87337 -0.179272 9.51757 155 133 113
1.80236 -0.109422 9.56995 50 28 6
1.89195 -0.0797931 8.077 106 69 54
1.79065 0.0151183 8.88561 92 50 19
1.77922 0.0877294 9.15557 152 120 96
1.73289 0.121713 8.95885 48 18 1
1.53776 0.29464 8.4902 190 154 137
1.53828 0.325281 8.58759 89 53 32
1.54921 0.360749 8.09824 90 46 30
-0.00823381 0.330087 7.86261 89 74 65
0.0271958 0.403951 8.14262 77 60 47
1.34656 0.499444 8.13917 86 44 12
-0.0941873 0.426508 7.53417 42 13 1
1.29023 0.577306 8.10343 62 27 6
1.43704 0.696093 8.09006 74 47 38
1.43536 0.775481 8.3777 68 42 32
1.27633 0.802505 7.9724 57 29 20
-0.859469 0.749507 8.04745 59 24 16
0.505505 0.807308 7.67696 64 26 13
-0.885314 0.801018 8.18943 118 98 93
-0.854789 0.830088 8.19329 36 10 4
-0.771852 1.23988 8.40651 34 10 6
-1.29276 0.942873 5.8378 103 111 92
1.08245 1.62012 8.52542 44 19 15
1.05521 1.63001 8.53538 110 84 80
0.511809 1.711 8.27447 35 12 8
-0.678542 1.73932 8.6461 135 102 93
1.05997 1.90426 8.70872 108 80 77
1.41927 2.19144 9.47996 118 100 90
1.12182 1.7785 6.76477 143 126 114
1.11308 1.80898 6.73147 112 90 77
-2.7259 -3.25478 8.92921 53 56 34
1.82725 -4.16661 13.6348 136 142 94
1.79301 -4.07707 13.6296 156 160 111
2.68693 -2.13177 7.0277 120 122 76
2.59849 -2.1397 7.36193 121 124 73
0.380299 -1.24216 6.0064 92 92 88
0.829374 -1.11878 9.2198 130 136 98
-0.0805263 -0.738822 7.9291 94 92 51
-0.886458 -0.795263 9.87144 90 94 50
2.01308 -0.332079 9.63037 82 64 46
-0.884688 -0.340298 8.07137 40 35 14
1.947 -0.187227 9.69729 98 69 47
1.98673 -0.0976626 9.60885 152 137 114
1.86448 0.131664 9.6331 37 16 3
1.58052 0.29553 8.70823 165 131 114
-0.371394 0.451411 7.76728 28 9 4
1.56232 0.629176 8.43183 104 68 50
0.853995 0.515034 7.33071 52 46 26
1.34722 0.56747 7.61687 146 109 96
1.528 0.707881 8.50753 84 56 47
1.23516 0.708043 7.85901 121 96 88
1.54338 0.787971 8.29545 75 50 38
1.75307 0.86906 9.01481 132 116 106
-0.834773 0.745867 7.99103 90 38 18
0.681377 0.832371 6.99958 74 59 42
-1.17131 1.43398 8.76263 124 104 80
0.39628 1.6461 7.99073 54 18 11
0.948862 1.75363 8.05388 82 51 48
0.998048 1.95235 8.79537 96 75 74
1.0648 1.76112 6.78461 78 54 43
1.08665 1.77601 6.64057 69 42 29
1.15395 2.62171 9.47675 96 64 56
-1.8269 -2.54696 9.20634 75 79 38
0.0956869 -1.77953 7.77253 130 138 86
0.149907 -1.55974 8.22092 139 146 100
0.0217011 -1.57378 9.0571 152 158 106
0.584004 -1.11114 7.41132 86 96 83
-2.09607 -1.40822 9.47249 132 130 81
2.45235 -1.0938 8.86756 97 92 54
0.667912 -1.0106 7.83574 146 154 108
2.03711 -0.54937 8.04754 138 106 76
1.65029 -0.131187 8.10528 150 145 118
1.88898 0.00530352 9.5746 47 20 2
0.409799 0.11292 9.00446 8 4 4
-1.14657 0.0101574 7.57284 50 36 14
-1.26288 0.243627 8.2293 90 72 62
1.24512 0.572911 7.96819 60 28 12
1.32843 0.641875 7.86769 142 114 100
-0.89373 0.665802 7.78792 161 109 80
-0.917156 1.12853 8.30862 36 10 4
1.14703 1.10105 6.95866 133 124 110
-1.19054 1.21226 8.47749 120 114 90
1.06421 1.45128 6.64629 76 66 28
0.116991 1.8941 8.22066 88 40 34
0.871396 1.67036 6.72302 66 34 26
1.1388 1.66455 6.35895 84 44 23
0.0967964 2.89283 9.30898 126 84 75
0.902685 -1.27808 8.92234 158 166 114
-0.847953 -0.837131 9.48249 153 156 106
-1.74218 -0.766022 8.6797 144 127 75
-1.03807 -0.11203 8.07832 46 48 38
-0.605048 -0.020161 7.78793 25 25 18
-0.0887546 0.399343 7.28536 82 54 38
0.543007 0.827351 7.74119 142 110 100
0.705473 -0.603691 9.2123 154 154 120
0.867508 2.70737 9.21424 112 95 92
-2.24492 -2.89903 8.87119 126 124 84
0.400325 -0.730538 6.14503 134 132 100
2.11061 -0.563074 9.18329 107 89 64
-2.74752 -3.18995 8.63189 73 80 52
-0.62369 -3.41467 10.1914 132 140 97
0.469113 2.28633 8.74703 126 104 100
-1.25874 -2.28595 7.05765 73 74 22
-0.10245 2.48268 8.84492 50 16 8
0.466489 1.8687 8.472 72 50 47
3.07021 -2.31043 6.98603 64 73 37
2.32617 -0.989183 8.7124 64 66 22
1.4928 0.803991 8.29818 63 40 29
-0.768208 -1.47099 3.86681 101 106 52
