ply
format ascii 1.0
element vertex 503
property float x
property float y
property float z
property uchar red
property uchar green
property uchar blue
end_header
0.627927 -0.177046 5.81506 0 255 0
1.13195 -0.261233 5.63734 0 255 0
-0.0160583 -0.370653 6.06434 0 255 0
0.0117864 -0.630211 5.8716 0 255 0
0.437368 -0.21744 5.69687 0 255 0
1.30116 -0.28137 5.45248 0 255 0
1.49073 -0.300426 5.38128 0 255 0
1.2318 -0.338837 5.3052 0 255 0
0.696643 -0.395312 5.81603 0 255 0
2.2068 -1.44624 9.33832 144 121 91
2.24843 -1.18332 8.9709 158 111 88
2.31754 -1.16046 8.89963 147 111 94
2.31549 -1.1477 8.9121 166 124 103
2.27709 -1.15534 8.95655 150 114 98
2.2222 -1.16495 9.14458 155 134 122
2.27755 -1.09901 9.03736 118 39 32
0.839224 -1.24542 9.63682 116 76 58
0.795636 -1.22424 9.63686 125 75 56
2.30889 -1.05063 9.01799 80 47 38
2.32266 -1.0456 9.01354 46 21 8
0.707019 -1.20155 9.65334 88 32 12
-0.15964 -1.12576 9.40628 158 110 85
2.25968 -1.06335 9.12841 148 116 96
0.657529 -1.18734 9.66902 114 49 26
0.676838 -1.18228 9.64999 102 36 14
0.659978 -1.13965 9.64879 96 21 2
-0.00609186 -1.08727 9.5087 65 20 4
0.659781 -1.12521 9.65001 96 23 5
-0.202186 -1.05726 9.40512 170 124 95
-0.188963 -1.05016 9.40886 122 80 58
-0.258135 -1.05044 9.44933 97 64 45
-0.0367478 -1.03587 9.47658 86 32 16
0.0101929 -1.03566 9.47648 90 36 19
-0.0294633 -1.02277 9.47125 102 40 24
-0.222059 -0.992781 9.4027 156 114 88
2.43324 -1.04194 9.66468 167 148 105
2.42578 -1.03767 9.69139 122 90 48
1.03734 -1.02232 9.76258 35 11 0
3.05825 -0.959711 9.50461 118 90 78
1.05158 -1.0139 9.79126 152 134 98
3.03052 -0.964971 9.5231 79 54 44
0.8303 -1.0051 9.75613 94 46 24
2.4092 -0.965099 9.55718 187 138 112
2.59472 -0.928394 9.40631 92 76 60
3.04771 -0.946427 9.52534 42 22 10
2.58756 -0.933467 9.48177 79 75 44
2.51513 -0.963664 9.65064 167 145 108
2.52315 -0.951665 9.66529 76 48 17
2.51367 -0.933939 9.63937 144 119 86
3.11441 -0.920327 9.62343 163 138 109
2.59098 -0.80226 9.21538 160 55 43
0.9677 -0.84694 9.73909 156 108 86
2.29988 -0.797505 9.50305 54 32 16
2.29302 -0.790337 9.49856 42 22 10
2.6201 -0.738693 9.17913 120 22 2
2.66975 -0.72755 9.18207 163 95 74
1.05781 -0.785816 9.74923 46 17 4
2.86648 -0.667886 9.21458 195 135 108
2.40015 -0.718117 9.59136 158 120 100
2.42065 -0.71106 9.62633 56 20 4
2.59809 -0.653729 9.30177 116 98 88
2.63777 -0.624775 9.28063 73 68 70
2.58015 -0.620497 9.32679 50 27 16
1.00424 -0.691623 9.82514 170 143 123
2.33076 -0.647639 9.54238 92 50 36
2.29852 -0.629505 9.65027 169 126 98
2.6248 -0.574799 9.29712 89 77 78
2.79411 -0.560403 9.27767 136 86 66
2.81039 -0.542504 9.27292 79 27 11
2.64641 -0.529037 9.25396 46 16 10
2.8129 -0.526942 9.27739 163 112 90
2.63866 -0.587667 9.96566 47 32 8
2.74153 -0.50838 9.25393 56 32 30
2.82689 -0.505635 9.28579 80 34 16
0.568677 -0.538428 9.42543 88 35 19
2.84009 -0.503041 9.28511 187 152 132
2.62569 -0.499617 9.27386 76 37 22
-0.275982 -0.567984 9.75212 46 12 3
0.324229 -0.524635 9.33485 142 92 78
2.57997 -0.49475 9.28634 186 139 118
2.59308 -0.487374 9.29833 68 20 4
2.68053 -0.482869 9.26899 152 120 106
2.75093 -0.481874 9.25556 51 24 18
2.69855 -0.469955 9.26345 182 130 114
0.367828 -0.489943 9.36415 137 88 73
2.29847 -0.502529 9.74491 126 100 76
2.38937 -0.446978 9.76115 35 18 5
2.30962 -0.446251 9.78006 39 24 8
2.89932 -0.415949 9.47569 46 20 8
2.89014 -0.395638 9.47307 108 82 66
2.21934 -0.42399 9.9331 114 88 60
2.88171 -0.359839 9.47304 34 17 4
2.27311 -0.383379 9.87372 128 88 64
2.5112 -0.361127 9.47321 118 84 70
2.52464 -0.359532 9.44511 132 100 86
2.34426 -0.376169 9.81178 160 116 92
2.64296 -0.324979 9.40108 44 20 5
2.64163 -0.312978 9.38522 178 154 140
2.50879 -0.311625 9.48042 38 22 15
2.73178 -0.300356 9.43969 97 52 26
2.49725 -0.301141 9.52134 40 28 20
2.89515 -0.260188 9.47318 112 67 50
2.75946 -0.244036 9.43075 123 104 88
2.27134 -0.198942 9.66017 148 86 64
2.23126 -0.157469 9.7051 148 90 66
2.27397 -0.0893554 9.67331 116 36 34
2.45974 -0.0887825 9.45037 118 74 54
2.48633 -0.0787743 9.47816 192 160 150
2.3129 -0.0545743 9.59865 108 80 76
2.29702 -0.05227 9.64034 150 120 116
2.69585 -0.0508932 9.3573 174 140 126
2.40294 -0.0453901 9.47011 123 84 66
2.69674 -0.0357459 9.36697 118 72 53
2.41026 -0.0346297 9.47156 184 143 128
3.02002 -0.00558217 9.43344 60 37 28
3.07293 0.00239116 9.47678 183 152 140
2.32256 -0.00215353 9.62117 164 137 136
2.96937 0.00628233 9.40604 64 26 18
3.05226 0.0108967 9.4462 168 140 122
2.32888 0.00145081 9.60527 117 90 87
2.92234 0.0081431 9.38295 154 97 74
3.05758 0.0167412 9.477 82 58 50
3.06753 0.0142005 9.4499 103 70 52
2.87227 0.0196221 9.38675 146 114 100
3.05976 0.0312654 9.47486 170 145 130
2.89617 0.0636684 9.42633 60 32 20
2.51178 0.0677237 9.47723 182 146 137
3.09003 0.0825497 9.52928 56 38 21
2.54431 0.0709033 9.46711 134 96 90
0.712664 0.0646339 9.86353 216 162 127
2.47608 0.0871367 9.50744 112 56 52
2.75712 0.0885838 9.41525 124 49 40
2.39755 0.0925998 9.58129 124 92 85
2.54497 0.0869598 9.42438 139 98 88
2.63109 0.112575 9.42463 122 52 50
2.62422 0.116695 9.43545 198 124 100
1.71031 0.0936842 9.33784 144 126 114
2.86401 0.132217 9.45079 48 32 27
1.60926 0.0811606 9.14688 102 84 69
2.88694 0.143531 9.44274 42 28 16
2.49588 0.141637 9.52046 51 19 15
2.51618 0.140229 9.49075 56 22 17
2.56438 0.13719 9.44992 194 144 115
1.74034 0.112497 9.29516 190 174 166
2.54181 0.155164 9.48739 42 15 12
2.55377 0.162029 9.48806 162 128 126
2.5351 0.165892 9.50148 76 54 48
2.58803 0.16336 9.47032 42 16 13
1.00738 0.116754 9.3422 87 64 53
2.57619 0.168319 9.47274 166 136 129
2.6325 0.167274 9.44765 127 90 86
-0.236022 0.128376 9.87546 168 116 90
2.62061 0.1761 9.465 49 24 24
2.62559 0.175146 9.45145 153 121 118
1.70179 0.142392 9.31021 150 132 120
1.00164 0.127844 9.34067 157 130 118
1.58447 0.124673 9.13656 154 128 116
2.62327 0.188682 9.48143 82 59 55
1.20053 0.128653 9.09421 200 174 164
1.72537 0.16201 9.31948 108 88 76
0.990194 0.147889 9.33972 102 74 62
-0.384733 0.12152 9.12763 131 71 38
1.19819 0.163002 9.08636 94 80 74
1.48564 0.192186 9.08421 216 202 198
1.2545 0.189574 9.07091 78 56 50
1.44592 0.201161 9.05945 80 64 56
1.20902 0.354769 9.34012 222 197 190
1.25145 0.358012 9.33614 169 155 156
1.26334 0.382304 9.31811 128 100 102
1.20009 0.43899 9.3715 190 158 152
-0.261911 0.454703 9.27713 112 52 41
0.512103 0.0349723 9.98156 164 113 90
2.28935 0.0419283 9.77468 162 140 132
2.48481 0.0821396 9.52145 130 76 74
2.31112 -0.0537848 9.61915 112 85 80
2.24754 -0.0934586 9.63863 132 24 22
2.6264 0.112175 9.43203 136 59 47
2.57257 0.129372 9.46178 195 140 108
2.86067 0.131993 9.44731 68 50 46
2.48905 0.136938 9.52015 120 86 86
2.6008 0.135254 9.43977 190 148 102
2.72828 -0.305604 9.44593 72 33 14
2.3438 -1.08177 8.95398 130 26 21
2.66004 -0.314971 9.43721 166 138 121
2.71085 -0.327329 9.46473 151 127 114
2.2917 -1.1045 9.06993 128 34 28
0.784346 -1.23843 9.64455 162 104 78
2.31371 -1.0535 9.01472 34 8 5
0.707065 -1.20897 9.65857 92 37 18
1.19865 0.382316 9.3451 161 134 127
-0.00496693 -1.15043 9.54148 150 104 76
2.62151 -0.353778 9.36303 183 156 140
-0.104354 -1.07461 9.44126 114 66 47
2.8647 -0.381127 9.44676 122 102 82
2.89231 -0.38499 9.43097 34 16 6
-0.0375687 -1.02771 9.47267 78 26 10
2.57621 0.159675 9.44431 44 18 14
-0.221265 -0.496986 9.79699 144 121 101
1.25126 0.355681 9.33762 154 128 128
1.20564 0.354206 9.34043 222 197 190
-0.116169 -0.959451 9.50302 137 78 62
2.59558 -0.492707 9.30635 66 20 4
2.61857 -0.495421 9.28618 84 45 32
-0.274702 -0.565841 9.70539 93 64 52
0.558306 -0.543183 9.43381 80 27 12
-0.280605 -0.577574 9.69314 82 38 18
2.38957 -0.904315 9.69197 108 48 26
1.07262 -0.912894 9.76266 40 14 3
2.61197 -0.585303 9.35701 46 30 24
0.282774 -0.599821 9.34449 208 153 113
2.71443 -0.579531 9.27663 22 12 12
-0.344616 -0.658452 9.69117 173 143 113
0.967268 -0.850283 9.74428 142 94 74
2.30534 -0.654527 9.63434 92 46 21
1.01472 -0.689371 9.86625 165 146 123
2.33358 -0.655385 9.62014 51 12 2
2.58045 -0.623332 9.32734 66 42 31
0.981436 -0.690412 9.75512 30 8 2
2.3145 -0.671245 9.6106 149 113 90
2.27212 -0.7689 9.52889 170 139 120
2.58006 -0.64768 9.29053 142 115 98
2.58427 -0.718203 9.24972 27 8 4
2.26536 -0.746638 9.52948 62 30 14
1.07205 -0.775207 9.77437 149 130 104
2.50805 0.067672 9.49755 183 148 144
0.718571 -0.00771169 9.89373 196 143 119
1.43704 0.149001 9.06334 95 78 71
2.40691 -0.0390593 9.49251 138 101 88
2.21505 -0.13645 9.75168 170 141 122
0.819274 -1.03744 9.76289 130 82 56
2.73451 -0.896881 9.32015 95 82 67
1.55209 0.313904 9.19313 152 34 30
2.72393 -0.635056 9.23876 31 14 8
-0.113769 -0.900395 9.53322 118 68 52
2.66525 -0.527907 9.27474 32 10 6
-0.205201 -1.06004 9.40762 170 124 96
2.71763 -0.0489168 9.38628 178 152 146
-0.0956838 -0.824601 9.61607 105 48 28
2.26414 -1.08537 9.10966 111 75 51
0.0423002 -1.02498 9.51585 104 39 21
1.05289 -1.05008 9.77494 78 63 24
-0.315664 -0.572061 9.71353 102 64 41
2.17471 -1.35959 9.28567 142 118 97
0.989202 -0.6439 9.88856 88 52 25
2.65858 -0.00954893 9.40878 137 98 78
2.44756 -0.0203052 9.50253 132 90 74
-0.282136 -0.632288 9.67362 164 106 86
2.29381 -0.0581772 9.64273 169 139 132
2.64098 -0.469305 9.29949 181 154 140
2.24315 -1.18321 8.99381 116 80 64
1.22614 0.135181 9.08453 108 93 86
2.26587 -0.189241 9.67442 148 80 56
-0.264008 -1.03511 9.44817 52 20 8
0.83792 -1.25311 9.65116 110 68 50
-0.0402204 -1.16592 9.52432 90 59 40
1.43489 0.168316 9.0604 75 60 54
1.43684 0.14126 9.04844 114 98 93
2.29431 -1.09909 9.03977 128 48 40
2.308 0.0759929 9.8312 164 140 130
0.0145721 -1.17209 9.56604 46 28 12
0.955269 -0.76547 9.73836 116 68 48
-0.117962 -1.05699 9.46412 112 62 50
1.04543 -0.849074 9.73111 136 87 60
2.35721 -0.900026 9.57678 120 74 44
1.40537 0.215019 9.12075 132 112 104
0.924199 -0.982034 9.72552 44 13 8
0.833483 -1.12498 9.6697 140 89 72
0.702213 -0.562711 9.73068 116 68 47
2.30036 0.118081 9.7743 140 106 90
0.986006 0.0832565 9.2866 98 70 60
1.18897 0.102591 9.12839 143 40 36
0.811057 -1.29649 9.64343 116 76 56
0.676354 -1.30411 9.68426 133 88 72
2.25629 -1.14001 9.08173 103 75 64
2.25776 -1.12749 9.08487 104 76 64
2.34879 -1.06601 9.00743 174 124 116
2.26742 -1.08239 9.08991 126 90 73
2.27202 -1.07044 9.09468 176 139 118
0.80982 -1.2105 9.66309 123 74 62
2.50794 -1.01573 8.90639 154 133 124
-0.119166 -0.983119 9.46011 121 70 56
0.680467 -1.06822 9.87319 72 28 8
0.873046 -1.01125 9.76207 128 78 62
0.660115 -1.02578 9.86694 158 112 78
0.0799921 -0.972355 9.61248 163 141 102
2.60173 -0.852851 9.43589 119 104 90
2.58198 -0.854745 9.50673 61 52 23
2.30536 -0.734344 9.35475 125 112 90
1.06925 -0.778828 9.78547 143 124 104
2.27331 -0.734297 9.5292 76 44 28
-0.327923 -0.71438 9.70654 205 150 111
2.37336 -0.654746 9.58739 51 15 2
0.988582 -0.690111 9.83101 34 7 2
2.72205 -0.588783 9.25364 104 74 70
-0.336826 -0.658722 9.70113 165 134 110
0.574681 -0.590058 9.4662 97 50 33
2.63805 -0.531763 9.2896 165 134 118
0.526386 -0.536811 9.41016 144 91 77
2.60943 -0.497985 9.27207 97 59 48
2.29905 -0.491654 9.75181 42 23 6
2.28872 -0.482999 9.74163 56 40 22
2.33616 -0.471313 9.71489 36 17 3
2.35284 -0.442991 9.80878 82 44 21
2.9236 -0.393962 9.46991 60 36 17
2.49794 -0.363956 9.50472 42 25 18
2.93598 -0.276782 9.44469 65 48 35
2.25445 0.0254762 9.76236 36 18 7
1.3438 0.0424058 9.00536 44 24 16
2.48008 0.118635 9.52327 101 60 60
0.97126 0.107736 9.33085 190 170 164
-0.182949 0.131526 9.83129 197 146 118
1.2548 0.173114 9.07168 77 58 50
1.23341 0.196343 9.07971 62 40 34
1.24702 0.197078 9.0827 64 39 30
1.19524 0.379718 9.35664 130 102 94
1.19917 0.377974 9.32416 162 138 132
1.3324 0.426983 9.32588 110 86 88
1.29052 0.43592 9.32008 126 97 94
2.286 -0.463294 9.86753 50 33 16
-0.297224 -0.56108 9.73459 162 140 120
0.327054 -0.542439 9.34919 98 49 28
2.62898 -0.52762 9.3035 175 150 140
-0.335391 -0.875802 9.65565 126 110 78
1.08146 -0.89865 9.80636 47 20 5
2.59838 0.180447 9.46541 29 12 9
2.51767 -0.842949 9.65138 72 44 16
1.24471 0.176712 9.07376 39 22 15
1.21996 0.153881 9.08041 139 122 116
1.04516 -0.77572 9.78128 34 11 3
1.04034 -1.08574 9.77305 80 63 27
2.31715 -1.15144 8.90336 142 106 90
-0.231715 -1.00209 9.44903 165 116 96
2.32823 -0.892654 9.66908 136 116 76
-0.355479 -0.799664 9.6443 102 78 48
2.41118 -0.0467887 9.45431 154 118 103
1.26575 0.102905 9.09721 154 118 116
0.829691 -1.00936 9.75698 92 46 23
1.34913 0.41617 9.3282 58 28 26
0.286804 -0.530807 9.56827 130 76 60
-0.1174 -1.02275 9.46103 176 117 98
1.04041 -0.949353 9.73397 140 92 66
1.1431 0.399758 9.35627 74 40 31
0.34493 0.0493191 9.88812 57 19 11
1.35894 0.402221 9.37145 55 25 22
0.679563 -0.752986 9.9515 104 62 32
-0.0426316 -1.16619 9.52762 104 71 52
0.643017 -1.20054 9.66941 77 18 4
0.650539 -1.0154 9.86258 173 127 92
0.998706 -0.933547 9.74596 151 102 82
-0.328338 -0.87428 9.66598 142 118 100
2.34635 -0.797846 9.53951 122 87 68
1.0008 -0.701389 9.80527 65 24 8
2.32262 -0.669682 9.61966 180 146 127
-0.224719 -0.571389 9.69139 135 86 68
2.65406 -0.500639 9.26793 121 87 74
2.33068 -0.473201 9.672 128 102 89
2.38785 -0.473283 9.70692 48 24 6
2.31176 -0.462625 9.83052 104 79 64
2.29119 0.0398661 9.7852 144 128 118
2.88877 0.173978 9.48747 175 148 137
-0.412319 -0.0703454 8.99394 23 20 36
2.75885 0.0863208 9.42141 139 72 63
2.50502 0.145679 9.51282 154 124 120
2.56684 0.16413 9.5055 138 105 103
-0.314845 0.0869753 9.11255 124 28 24
-0.326475 0.0999899 9.1543 120 39 33
-0.43165 -0.376373 8.72372 136 68 70
2.28189 -1.34024 9.12884 150 126 104
1.24757 0.13929 9.07108 79 68 64
2.62463 -0.0348617 9.40464 168 136 126
-0.496872 -0.0149326 8.91189 80 72 80
-0.251434 -1.10744 9.59468 150 100 77
2.53694 -1.15917 8.75074 237 215 208
2.54329 -1.15219 8.73452 242 224 220
2.52606 -1.16079 8.77132 238 223 211
2.5786 -1.13086 8.67707 208 188 183
2.58486 -1.12035 8.67929 241 234 230
2.62291 -1.16608 8.82739 162 142 134
2.24153 -1.17665 8.98448 107 70 50
2.192 -1.22252 9.23965 96 82 65
2.34007 -1.15376 9.00558 150 100 76
2.188 -1.16073 9.05961 111 96 80
2.24357 -1.27329 9.46785 92 80 58
2.52166 -1.06298 8.78059 223 200 190
2.54118 -1.06217 8.80227 84 63 55
2.22452 -1.15475 9.1508 103 84 74
2.56514 -1.07907 8.89166 150 126 115
2.55272 -1.05635 8.81359 184 166 162
2.23368 -1.15095 9.17802 87 68 60
2.54647 -1.04712 8.80781 88 69 62
2.68763 -1.06805 8.87536 254 245 244
2.607 -1.07982 8.93128 131 110 100
2.61628 -1.0374 8.79074 146 128 125
2.72074 -1.13728 9.15141 76 50 40
2.20633 -1.1777 9.35274 154 122 94
2.66389 -1.01966 8.83029 210 193 188
2.56083 -1.01582 8.82854 164 148 142
0.00298634 -1.16535 9.56782 99 72 50
2.61387 -0.974926 8.78859 206 190 184
0.00412275 -1.15606 9.58464 126 94 73
0.0274267 -1.16276 9.64363 85 57 20
0.0245116 -1.14107 9.57098 131 98 68
0.00983191 -1.13231 9.60636 75 39 20
2.3557 -1.011 9.07613 204 168 144
2.56033 -1.05494 9.40255 168 148 110
2.45678 -1.08375 9.58528 90 48 15
2.51049 -1.09527 9.65315 86 50 12
2.45373 -1.08022 9.60584 172 138 99
2.44108 -1.06869 9.60278 157 124 82
0.664862 -1.06088 9.83929 156 136 93
3.10049 -1.00423 9.64401 114 100 95
2.4217 -1.01053 9.69545 134 109 64
3.04705 -0.96699 9.52429 29 12 8
3.06896 -0.951979 9.51201 71 38 20
2.40899 -0.960618 9.65426 163 140 102
2.75799 -0.907153 9.3936 158 128 114
2.72391 -0.887158 9.30775 91 79 66
2.60162 -0.890596 9.42568 125 114 98
2.46211 -0.957252 9.80046 176 153 114
2.68301 -0.849688 9.23697 158 124 113
2.57171 -0.881804 9.46525 77 76 51
2.57947 -0.817157 9.17999 182 100 76
2.33797 -0.87749 9.58251 91 32 10
2.363 -0.872444 9.56711 178 134 111
2.6193 -0.829058 9.36179 211 185 174
2.68996 -0.786038 9.13688 193 139 114
2.28047 -0.854175 9.52084 100 65 34
2.56074 -0.79579 9.22994 111 40 30
2.56411 -0.873258 9.74732 164 148 114
2.60411 -0.825678 9.48007 135 120 104
2.57708 -0.784112 9.24354 110 24 12
2.57401 -0.767209 9.17342 146 55 28
0.47934 -0.956311 10.2963 90 69 28
2.55026 -0.850465 9.69994 62 44 7
2.64804 -0.811028 9.47708 100 83 66
2.64052 -0.736768 9.12699 100 37 15
2.57324 -0.840946 9.74997 142 138 99
0.318031 -0.855779 10.0373 94 68 31
2.59928 -0.723144 9.25576 60 10 4
2.57588 -0.780855 9.75133 127 133 94
2.90016 -0.698157 9.23994 181 132 106
2.46866 -0.727442 9.52638 82 88 51
2.56604 -0.686165 9.27634 46 26 18
2.60814 -0.680817 9.24617 98 89 88
2.94084 -0.67122 9.21166 91 74 62
0.575776 -0.703774 9.50009 161 118 88
2.59742 -0.655363 9.23857 117 108 106
2.35767 -0.667551 9.58136 112 78 63
2.623 -0.608228 9.25848 98 92 94
2.77298 -0.569651 9.25554 84 33 18
2.59695 -0.589738 9.62236 90 74 54
2.51644 -0.604336 9.78255 48 32 10
0.565955 -0.581914 9.46197 163 112 95
0.204185 -0.580824 9.47171 82 38 15
2.8293 -0.544779 9.39215 62 34 28
2.3377 -0.592799 9.83877 215 187 164
2.79113 -0.528977 9.31277 132 108 100
2.79059 -0.521311 9.27668 110 70 59
2.86188 -0.523084 9.28685 72 30 8
2.5266 -0.52501 9.325 108 51 22
3.0118 -0.519025 9.44257 166 138 113
2.51952 -0.504606 9.27118 72 20 4
2.73491 -0.493878 9.24093 98 71 64
2.65664 -0.490289 9.28614 92 50 29
2.61894 -0.486698 9.2977 74 32 14
2.30626 -0.507427 9.69706 92 70 38
2.24709 -0.48371 9.74666 151 126 102
2.28546 -0.484437 9.76862 50 30 22
2.39039 -0.466837 9.75416 116 98 84
2.73206 -0.432265 9.31841 84 42 20
2.24941 -0.465452 9.74646 152 128 110
2.27802 -0.460106 9.78475 34 14 6
2.30453 -0.459036 9.77406 33 16 4
2.30929 -0.438422 9.78672 60 42 25
2.84957 -0.37621 9.21252 102 83 57
-0.41233 -0.370561 8.79611 62 26 26
0.429482 -0.424591 10.1036 128 108 88
2.66408 -0.347286 9.39649 53 32 20
-0.577658 -0.347367 8.66242 106 58 52
2.64973 -0.341152 9.39366 163 138 127
2.83944 -0.345807 9.48094 40 20 9
2.6385 -0.324372 9.37958 65 46 38
2.69198 -0.320008 9.41347 128 106 96
2.62034 -0.324439 9.62673 123 94 76
2.61525 -0.304046 9.3896 40 22 8
2.92113 -0.301216 9.43016 59 36 14
2.53322 -0.301563 9.51253 155 130 118
2.6298 -0.26474 9.49351 96 62 40
1.37443 -0.1781 9.18025 157 116 92
2.67594 -0.0593931 9.37497 198 154 134
2.67332 -0.0409241 9.3645 98 52 30
3.03782 0.0351479 9.45256 64 42 31
-0.420854 -0.0621608 8.95578 90 85 95
2.51764 0.0403929 9.44267 150 114 96
2.50064 0.050166 9.43573 127 86 68
1.08688 0.0681156 9.19992 214 190 180
1.3875 0.0643239 9.02052 64 47 32
0.980281 0.069279 9.21455 157 132 120
2.88166 0.150989 9.47467 96 80 72
0.979417 0.103656 9.31384 150 127 122
1.11251 0.104344 9.26064 153 106 96
1.34337 0.103568 9.05019 54 38 23
1.48388 0.162485 9.08228 107 91 86
