ply
format ascii 1.0
element vertex 503
property float x
property float y
property float z
property uchar red
property uchar green
property uchar blue
end_header
0.620774 -0.1747 5.79465 0 255 0
1.12964 -0.259724 5.61533 0 255 0
-0.0294289 -0.370116 6.04619 0 255 0
-0.00129441 -0.632164 5.85163 0 255 0
0.428413 -0.215474 5.67529 0 255 0
1.30051 -0.280069 5.42874 0 255 0
1.49191 -0.299319 5.35689 0 255 0
1.23051 -0.338085 5.28004 0 255 0
0.690135 -0.395056 5.79565 0 255 0
2.21398 -1.45602 9.35194 144 121 91
2.2561 -1.19059 8.98102 158 111 88
2.32589 -1.16752 8.90907 147 111 94
2.32382 -1.15464 8.92167 166 124 103
2.28504 -1.16234 8.96653 150 114 98
2.22959 -1.17204 9.15634 155 134 122
2.28549 -1.10548 9.04811 118 39 32
0.833287 -1.25319 9.65303 116 76 58
0.789284 -1.23181 9.65306 125 75 56
2.31714 -1.05663 9.02856 80 47 38
2.33104 -1.05156 9.02407 46 21 8
0.699817 -1.2089 9.66968 88 32 12
-0.175077 -1.13234 9.42009 158 110 85
2.26743 -1.06947 9.14003 148 116 96
0.649852 -1.19454 9.6855 114 49 26
0.66935 -1.18944 9.66629 102 36 14
0.652331 -1.1464 9.66507 96 21 2
-0.0200784 -1.09349 9.52351 65 20 4
0.652133 -1.13183 9.66631 96 23 5
-0.218026 -1.06318 9.41891 170 124 95
-0.204677 -1.05601 9.42268 122 80 58
-0.274519 -1.05629 9.46352 97 64 45
-0.0510184 -1.04159 9.49108 86 32 16
-0.00362881 -1.04139 9.49099 90 36 19
-0.0436625 -1.02837 9.4857 102 40 24
-0.238085 -0.998085 9.41646 156 114 88
2.44255 -1.04785 9.68146 167 148 105
2.43502 -1.04354 9.70842 122 90 48
1.03329 -1.02797 9.78003 35 11 0
3.07357 -0.964873 9.51998 118 90 78
1.04766 -1.01946 9.80899 152 134 98
3.04557 -0.970182 9.53864 79 54 44
0.824268 -1.01057 9.77347 94 46 24
2.41831 -0.970276 9.57293 187 138 112
2.60564 -0.933235 9.42065 92 76 60
3.06293 -0.951461 9.54091 42 22 10
2.59839 -0.938354 9.49683 79 75 44
2.52523 -0.968831 9.6673 167 145 108
2.53333 -0.956717 9.6821 76 48 17
2.52377 -0.938821 9.65592 144 119 86
3.13025 -0.925112 9.63995 163 138 109
2.6019 -0.8059 9.22789 160 55 43
0.962993 -0.850904 9.75629 156 108 86
2.30797 -0.801075 9.51825 54 32 16
2.30103 -0.793838 9.51372 42 22 10
2.63131 -0.741728 9.19129 120 22 2
2.68144 -0.73048 9.19427 163 95 74
1.05396 -0.7892 9.76654 46 17 4
2.88004 -0.670256 9.22713 195 135 108
2.40917 -0.720931 9.60742 158 120 100
2.42987 -0.713806 9.64274 56 20 4
2.60907 -0.655946 9.3151 116 98 88
2.64914 -0.626719 9.29377 73 68 70
2.59095 -0.622395 9.34036 50 27 16
0.999872 -0.694101 9.84317 170 143 123
2.33913 -0.649777 9.55796 92 50 36
2.30657 -0.631464 9.66688 169 126 98
2.63604 -0.576263 9.31041 89 77 78
2.80698 -0.56174 9.29081 136 86 66
2.82342 -0.54367 9.28601 79 27 11
2.65787 -0.530065 9.26684 46 16 10
2.82595 -0.527959 9.29053 163 112 90
2.6499 -0.589235 9.98535 47 32 8
2.7539 -0.509216 9.26683 56 32 30
2.84007 -0.506449 9.29901 80 34 16
0.560233 -0.53943 9.43954 88 35 19
2.8534 -0.503831 9.29832 187 152 132
2.63694 -0.500363 9.28692 76 37 22
-0.292569 -0.569213 9.76919 46 12 3
0.313466 -0.525493 9.34805 142 92 78
2.59079 -0.495447 9.29951 186 139 118
2.60402 -0.488 9.31162 68 20 4
2.69232 -0.483458 9.28202 152 120 106
2.76339 -0.482457 9.26847 51 24 18
2.71051 -0.470421 9.27643 182 130 114
0.357478 -0.490471 9.37764 137 88 73
2.30651 -0.503271 9.76242 126 100 76
2.39828 -0.447194 9.77883 35 18 5
2.31776 -0.446455 9.7979 39 24 8
2.91316 -0.415903 9.49073 46 20 8
2.9039 -0.395398 9.48808 108 82 66
2.22659 -0.423972 9.95239 114 88 60
2.89539 -0.359257 9.48805 34 17 4
2.28088 -0.382977 9.89245 128 88 64
2.52133 -0.360536 9.48816 118 84 70
2.53491 -0.358928 9.45979 132 100 86
2.35273 -0.375703 9.82993 160 116 92
2.65437 -0.324052 9.41536 44 20 5
2.65303 -0.311937 9.39935 178 154 140
2.5189 -0.31056 9.49543 38 22 15
2.74403 -0.299197 9.45436 97 52 26
2.50725 -0.299975 9.53674 40 28 20
2.90896 -0.258653 9.4882 112 67 50
2.77198 -0.242341 9.44533 123 104 88
2.27915 -0.196782 9.67686 148 86 64
2.23868 -0.154909 9.72221 148 90 66
2.28181 -0.0861472 9.69011 116 36 34
2.4694 -0.0855854 9.46508 118 74 54
2.49623 -0.0754821 9.49314 192 160 150
2.32112 -0.0510378 9.61475 108 80 76
2.30509 -0.0487094 9.65683 150 120 116
2.70779 -0.0473493 9.37117 174 140 126
2.41205 -0.0417743 9.485 123 84 66
2.70869 -0.0320569 9.38092 118 72 53
2.41945 -0.0309115 9.48646 184 143 128
3.03505 -0.00162024 9.4481 60 37 28
3.08846 0.00642775 9.49186 183 152 140
2.33088 0.0018844 9.63748 164 137 136
2.98392 0.0103597 9.42042 64 26 18
3.0676 0.0150149 9.46098 168 140 122
2.33726 0.00552241 9.62143 117 90 87
2.93644 0.0122401 9.3971 154 97 74
3.07296 0.0209159 9.49208 82 58 50
3.08301 0.0183495 9.46472 103 70 52
2.88589 0.0238317 9.40092 146 114 100
3.07516 0.0355787 9.48992 170 145 130
2.91001 0.068299 9.44089 60 32 20
2.52194 0.0724154 9.49221 182 146 137
3.10571 0.0873534 9.54486 56 38 21
2.55478 0.0756234 9.48199 134 96 90
0.705544 0.0694047 9.88184 216 162 127
2.48589 0.0920169 9.5227 112 56 52
2.76964 0.09346 9.42968 124 49 40
2.4066 0.0975386 9.59724 124 92 85
2.55545 0.0918321 9.43885 139 98 88
2.6424 0.117687 9.43912 122 52 50
2.63546 0.121848 9.45004 198 124 100
1.71283 0.0986635 9.35132 144 126 114
2.87754 0.137506 9.46557 48 32 27
1.61086 0.0860201 9.15851 102 84 69
2.9007 0.148926 9.45746 42 28 16
2.50589 0.147038 9.53584 51 19 15
2.52639 0.145614 9.50585 56 22 17
2.57505 0.142542 9.46463 194 144 115
1.74316 0.117654 9.30824 190 174 166
2.55226 0.16069 9.50247 42 15 12
2.56434 0.167621 9.50314 162 128 126
2.54549 0.171522 9.51669 76 54 48
2.59893 0.168962 9.48524 42 16 13
1.00318 0.121992 9.35558 87 64 53
2.58697 0.173969 9.48768 166 136 129
2.64382 0.172911 9.46236 127 90 86
-0.252213 0.133808 9.8937 168 116 90
2.63181 0.181822 9.47987 49 24 24
2.63685 0.180858 9.46619 153 121 118
1.70424 0.147837 9.32342 150 132 120
0.99739 0.133188 9.35404 157 130 118
1.58584 0.129949 9.1481 154 128 116
2.6345 0.194525 9.49646 82 59 55
1.19823 0.133987 9.10526 200 174 164
1.72805 0.167642 9.33279 108 88 76
0.985835 0.153425 9.35308 102 74 62
-0.402201 0.126873 9.13869 131 71 38
1.19587 0.168665 9.09733 94 80 74
1.48607 0.198112 9.09522 216 202 198
1.25272 0.195487 9.08175 78 56 50
1.44597 0.207175 9.07021 80 64 56
1.20676 0.362272 9.35351 222 197 190
1.2496 0.365544 9.34951 169 155 156
1.26161 0.390067 9.3313 128 100 102
1.19775 0.4473 9.3852 190 158 152
-0.278216 0.46324 9.28963 112 52 41
0.503041 0.0394738 10.001 164 113 90
2.29732 0.046394 9.79245 162 140 132
2.49471 0.0869719 9.53684 130 76 74
2.31933 -0.05024 9.63545 112 85 80
2.25514 -0.0902892 9.6551 132 24 22
2.63767 0.117285 9.44659 136 59 47
2.58331 0.134649 9.47661 195 140 108
2.87417 0.137279 9.46206 68 50 46
2.49899 0.142294 9.53552 120 86 86
2.61182 0.140585 9.4544 190 148 102
2.7405 -0.304495 9.46065 72 33 14
2.35239 -1.08807 8.96395 130 26 21
2.67161 -0.313948 9.45184 166 138 121
2.7229 -0.326426 9.47963 151 127 114
2.29977 -1.11101 9.081 128 34 28
0.777884 -1.24613 9.66082 162 104 78
2.322 -1.05953 9.02526 34 8 5
0.699862 -1.21638 9.67496 92 37 18
1.1963 0.390083 9.35854 161 134 127
-0.0189525 -1.15725 9.55661 150 104 76
2.63272 -0.353127 9.37694 183 156 140
-0.119266 -1.0807 9.45541 114 66 47
2.87822 -0.380748 9.46152 122 102 82
2.9061 -0.384649 9.44558 34 16 6
-0.051846 -1.03336 9.48713 78 26 10
2.587 0.165242 9.45897 44 18 14
-0.237333 -0.497537 9.8145 144 121 101
1.24941 0.363191 9.351 154 128 128
1.20335 0.361704 9.35383 222 197 190
-0.1312 -0.964439 9.51775 137 78 62
2.60655 -0.493384 9.31972 66 20 4
2.62976 -0.496126 9.29936 84 45 32
-0.291268 -0.567051 9.72202 93 64 52
0.549761 -0.544229 9.448 80 27 12
-0.297226 -0.578895 9.70965 82 38 18
2.39847 -0.908906 9.709 108 48 26
1.06891 -0.917494 9.78011 40 14 3
2.62307 -0.586865 9.37087 46 30 24
0.271608 -0.601397 9.35778 208 153 113
2.72654 -0.581045 9.28975 22 12 12
-0.361852 -0.660543 9.70765 173 143 113
0.962557 -0.854279 9.76153 142 94 74
2.31346 -0.656726 9.65079 92 46 21
1.01044 -0.691827 9.88467 165 146 123
2.34197 -0.657595 9.63646 51 12 2
2.59126 -0.625257 9.34091 66 42 31
0.976866 -0.692879 9.77247 30 8 2
2.32271 -0.673606 9.62683 149 113 90
2.27994 -0.772195 9.54434 170 139 120
2.59087 -0.649839 9.30375 142 115 98
2.59513 -0.721038 9.26256 27 8 4
2.27311 -0.749719 9.54493 62 30 14
1.06834 -0.77849 9.79192 149 130 104
2.51817 0.0723641 9.51272 183 148 144
0.711498 -0.00363218 9.91234 196 143 119
1.43701 0.154516 9.07415 95 78 71
2.41606 -0.0353827 9.50761 138 101 88
2.2223 -0.133686 9.76923 170 141 122
0.813133 -1.04322 9.78029 130 82 56
2.74678 -0.90143 9.33369 95 82 67
1.55314 0.320994 9.20519 152 34 30
2.73613 -0.637104 9.25151 31 14 8
-0.12878 -0.904818 9.54824 118 68 52
2.67688 -0.528925 9.28782 32 10 6
-0.22107 -1.06599 9.42142 170 124 96
2.72977 -0.0453543 9.40042 178 152 146
-0.110534 -0.828298 9.63189 105 48 28
2.27194 -1.0917 9.1211 111 75 51
0.0287784 -1.0306 9.53074 104 39 21
1.04898 -1.05599 9.7925 78 63 24
-0.332623 -0.573328 9.73022 102 64 41
2.18161 -1.36853 9.29878 142 118 97
0.984684 -0.645919 9.90719 88 52 25
2.67015 -0.0056061 9.42313 137 98 78
2.45709 -0.0164511 9.51773 132 90 74
-0.29877 -0.634133 9.68994 164 106 86
2.30185 -0.0546728 9.65924 169 139 132
2.65238 -0.469761 9.3128 181 154 140
2.25076 -1.19048 9.00414 116 80 64
1.22409 0.140576 9.09549 108 93 86
2.27363 -0.186988 9.69123 148 80 56
-0.280446 -1.04081 9.46235 52 20 8
0.831968 -1.26096 9.6675 110 68 50
-0.0545406 -1.17288 9.53928 90 59 40
1.43484 0.174015 9.07117 75 60 54
1.43681 0.1467 9.0591 114 98 93
2.30242 -1.10556 9.05055 128 48 40
2.31614 0.0807851 9.84952 164 140 130
0.00076736 -1.17912 9.58141 46 28 12
0.950448 -0.768654 9.75555 116 68 48
-0.133008 -1.06291 9.47849 112 62 50
1.04147 -0.853063 9.74825 136 87 60
2.36582 -0.904578 9.5927 120 74 44
1.40503 0.221169 9.1321 132 112 104
0.919073 -0.987288 9.74259 44 13 8
0.827492 -1.13159 9.68622 140 89 72
0.694985 -0.563943 9.74774 116 68 47
2.30845 0.123274 9.79207 140 106 90
0.981614 0.0881738 9.29945 98 70 60
1.18655 0.107677 9.13977 143 40 36
0.804847 -1.30474 9.6597 116 76 56
0.668847 -1.31243 9.70089 133 88 72
2.26402 -1.14686 9.09291 103 75 64
2.2655 -1.13422 9.09608 104 76 64
2.35742 -1.07216 9.01791 174 124 116
2.27526 -1.0887 9.10116 126 90 73
2.2799 -1.07663 9.10598 176 139 118
0.803599 -1.21793 9.67955 123 74 62
2.51812 -1.02142 8.91593 154 133 124
-0.134219 -0.988335 9.47443 121 70 56
0.672976 -1.07428 9.89162 72 28 8
0.867421 -1.01678 9.77948 128 78 62
0.652433 -1.03144 9.88531 158 112 78
0.0668148 -0.977474 9.6283 163 141 102
2.61271 -0.856969 9.45051 119 104 90
2.59276 -0.858877 9.52202 61 52 23
2.31352 -0.737315 9.36853 125 112 90
1.06551 -0.782145 9.80313 143 124 104
2.28114 -0.73726 9.54465 76 44 28
-0.345005 -0.717007 9.72317 205 150 111
2.38214 -0.656953 9.60341 51 15 2
0.984066 -0.692574 9.84908 34 7 2
2.73423 -0.590387 9.26653 104 74 70
-0.353989 -0.660817 9.71771 165 134 110
0.566284 -0.591552 9.48071 97 50 33
2.64943 -0.532816 9.30282 165 134 118
0.51754 -0.537795 9.42412 144 91 77
2.62053 -0.498715 9.28511 97 59 48
2.30709 -0.492292 9.76938 42 23 6
2.29667 -0.483554 9.7591 56 40 22
2.34456 -0.47176 9.73211 36 17 3
2.36138 -0.443165 9.8269 82 44 21
2.93768 -0.393708 9.4849 60 36 17
2.50794 -0.363391 9.51997 42 25 18
2.95018 -0.275409 9.45944 65 48 35
2.26209 0.0297862 9.78001 36 18 7
1.34288 0.0469048 9.01559 44 24 16
2.48993 0.123816 9.53867 101 60 60
0.966719 0.112889 9.34412 190 170 164
-0.198624 0.136984 9.84912 197 146 118
1.25303 0.17887 9.08252 77 58 50
1.23143 0.202323 9.09063 62 40 34
1.24517 0.203063 9.09364 64 39 30
1.19285 0.387461 9.37019 130 102 94
1.19682 0.385699 9.33741 162 138 132
1.33133 0.435169 9.33916 110 86 88
1.28905 0.444194 9.33329 126 97 94
2.2939 -0.463657 9.88621 50 33 16
-0.31401 -0.562242 9.75149 162 140 120
0.316314 -0.543468 9.36253 98 49 28
2.64027 -0.528633 9.31685 175 150 140
-0.352543 -0.879974 9.6718 126 110 78
1.07783 -0.903112 9.82423 47 20 5
2.60937 0.186212 9.48028 29 12 9
2.5278 -0.846961 9.66805 72 44 16
1.24284 0.182503 9.08462 39 22 15
1.21785 0.159455 9.09134 139 122 116
1.0412 -0.779006 9.7989 34 11 3
1.03631 -1.09199 9.7906 80 63 27
2.3255 -1.15841 8.91284 142 106 90
-0.247843 -1.00748 9.46323 165 116 96
2.33655 -0.897131 9.68588 136 116 76
-0.372817 -0.803107 9.66033 102 78 48
2.42038 -0.0431873 9.46904 154 118 103
1.26407 0.107989 9.1083 154 118 116
0.823653 -1.01487 9.77433 92 46 23
1.34822 0.424252 9.34151 58 28 26
0.275637 -0.531716 9.5837 130 76 60
-0.132438 -1.02835 9.47537 176 117 98
1.0364 -0.9543 9.75114 140 92 66
1.14021 0.407696 9.36981 74 40 31
0.334288 0.0539641 9.9066 57 19 11
1.35811 0.410171 9.38518 55 25 22
0.672065 -0.75603 9.97067 104 62 32
-0.0569755 -1.17316 9.54261 104 71 52
0.6352 -1.20787 9.68589 77 18 4
0.642766 -1.02095 9.88091 173 127 92
0.99429 -0.93834 9.76323 151 102 82
-0.345425 -0.878438 9.68223 142 118 100
2.35486 -0.80142 9.55507 122 87 68
0.996408 -0.703961 9.8231 65 24 8
2.3309 -0.672028 9.63598 180 146 127
-0.240804 -0.572655 9.70789 135 86 68
2.6656 -0.501396 9.28094 121 87 74
2.33904 -0.473666 9.68881 128 102 89
2.39675 -0.473751 9.72408 48 24 6
2.31991 -0.462983 9.84884 104 79 64
2.29918 0.0443124 9.80307 144 128 118
2.90254 0.179666 9.50261 175 148 137
-0.430035 -0.0668299 9.00373 23 20 36
2.77139 0.0911753 9.4359 139 72 63
2.51511 0.151118 9.52812 154 124 120
2.57753 0.169742 9.52075 138 105 103
-0.331643 0.0919935 9.12349 124 28 24
-0.343392 0.105134 9.16563 120 39 33
-0.449514 -0.375791 8.73093 136 68 70
2.28984 -1.34901 9.14048 150 126 104
1.24572 0.144723 9.08191 79 68 64
2.63588 -0.0311592 9.41894 168 136 126
-0.515378 -0.010885 8.92087 80 72 80
-0.267785 -1.11383 9.61027 150 100 77
2.54741 -1.16623 8.75881 237 215 208
2.55383 -1.15919 8.74243 242 224 220
2.53643 -1.16787 8.77958 238 223 211
2.58949 -1.13766 8.68443 208 188 183
2.59581 -1.12705 8.68668 241 234 230
2.63419 -1.17322 8.8362 162 142 134
2.24914 -1.18386 8.99472 107 70 50
2.19908 -1.23015 9.25232 96 82 65
2.34862 -1.16075 9.01604 150 100 76
2.19507 -1.16778 9.07056 111 96 80
2.2511 -1.28141 9.48272 92 80 58
2.53199 -1.06912 8.78894 223 200 190
2.55169 -1.06831 8.81083 84 63 55
2.23193 -1.16174 9.16263 103 84 74
2.57586 -1.08536 8.90108 150 126 115
2.56334 -1.06243 8.82225 184 166 162
2.24118 -1.15791 9.19012 87 68 60
2.55703 -1.05311 8.81642 88 69 62
2.69953 -1.07425 8.88465 254 245 244
2.61811 -1.08613 8.94108 131 110 100
2.62752 -1.04331 8.7992 146 128 125
2.7329 -1.14413 9.16334 76 50 40
2.21353 -1.1849 9.3665 154 122 94
2.67557 -1.0254 8.83914 210 193 188
2.57153 -1.02151 8.83735 164 148 142
-0.0109291 -1.17232 9.58321 99 72 50
2.62509 -0.98023 8.79703 206 190 184
-0.00978464 -1.16293 9.60019 126 94 73
0.0137303 -1.1697 9.65975 85 57 20
0.0108027 -1.1478 9.5864 131 98 68
-0.00402383 -1.13896 9.62211 75 39 20
2.36439 -1.01662 9.08727 204 168 144
2.57091 -1.06099 9.41685 168 148 110
2.46633 -1.09007 9.60131 90 48 15
2.52054 -1.10169 9.66984 86 50 12
2.46324 -1.0865 9.62206 172 138 99
2.45048 -1.07486 9.61897 157 124 82
0.657229 -1.06687 9.8574 156 136 93
3.11619 -1.00982 9.66072 114 100 95
2.4309 -1.01614 9.71252 134 109 64
3.06226 -0.972221 9.53984 29 12 8
3.08439 -0.957068 9.52745 71 38 20
2.41808 -0.965749 9.67093 163 140 102
2.77047 -0.9118 9.40785 158 128 114
2.73608 -0.891615 9.32117 91 79 66
2.61259 -0.895075 9.4402 125 114 98
2.47167 -0.96235 9.81854 176 153 114
2.69481 -0.853785 9.2497 158 124 113
2.58239 -0.886197 9.48015 77 76 51
2.59028 -0.82094 9.19216 182 100 76
2.3464 -0.881825 9.59849 91 32 10
2.37167 -0.876732 9.58294 178 134 111
2.63046 -0.832951 9.3757 211 185 174
2.70184 -0.78953 9.14866 193 139 114
2.28836 -0.858286 9.53621 100 65 34
2.57137 -0.799366 9.24258 111 40 30
2.57466 -0.87756 9.76491 164 148 114
2.6151 -0.829534 9.49512 135 120 104
2.58786 -0.787576 9.25631 110 24 12
2.58478 -0.770514 9.18552 146 55 28
0.469849 -0.961278 10.3188 90 69 28
2.5607 -0.85455 9.71708 62 44 7
2.65946 -0.814747 9.49211 100 83 66
2.65194 -0.739787 9.13866 100 37 15
2.58389 -0.844939 9.76758 142 138 99
0.307053 -0.859784 10.0572 94 68 31
2.61028 -0.726026 9.26865 60 10 4
2.58656 -0.784273 9.76896 127 133 94
2.91404 -0.700818 9.25274 181 132 106
2.47835 -0.73035 9.54183 82 88 51
2.57671 -0.688691 9.28943 46 26 18
2.61923 -0.683295 9.25897 98 89 88
2.95511 -0.673626 9.2242 91 74 62
0.567376 -0.706354 9.51492 161 118 88
2.60841 -0.657598 9.25129 117 108 106
2.3663 -0.669879 9.59732 112 78 63
2.63423 -0.610013 9.2714 98 92 94
2.78565 -0.571075 9.26846 84 33 18
2.60786 -0.591333 9.63875 90 74 54
2.52655 -0.606062 9.80046 48 32 10
0.557475 -0.58333 9.47643 163 112 95
0.192244 -0.582209 9.4862 82 38 15
2.84248 -0.545965 9.40638 62 34 28
2.34609 -0.594404 9.85718 215 187 164
2.80396 -0.530012 9.32624 132 108 100
2.80343 -0.522273 9.2898 110 70 59
2.8754 -0.524067 9.30009 72 30 8
2.5369 -0.525992 9.33854 108 51 22
3.02672 -0.519972 9.45732 166 138 113
2.52976 -0.505394 9.2842 72 20 4
2.74722 -0.494575 9.2537 98 71 64
2.66819 -0.490947 9.29933 92 50 29
2.63013 -0.487319 9.31099 74 32 14
2.31438 -0.508218 9.71411 92 70 38
2.25463 -0.48427 9.76417 151 126 102
2.29337 -0.485005 9.78635 50 30 22
2.39931 -0.467242 9.77177 116 98 84
2.74433 -0.432372 9.33192 84 42 20
2.25698 -0.465837 9.76397 152 128 110
2.28585 -0.46044 9.80263 34 14 6
2.31262 -0.459362 9.79184 33 16 4
2.31743 -0.43855 9.80463 60 42 25
2.86299 -0.37579 9.22503 102 83 57
-0.430023 -0.369922 8.80401 62 26 26
0.419581 -0.424477 10.1242 128 108 88
2.67569 -0.346574 9.41073 53 32 20
-0.596905 -0.346501 8.669 106 58 52
2.6612 -0.34038 9.40787 163 138 127
2.85272 -0.345087 9.49602 40 20 9
2.64987 -0.32344 9.39365 65 46 38
2.70385 -0.319036 9.42788 128 106 96
2.63149 -0.323499 9.64316 123 94 76
2.6264 -0.302917 9.40377 40 22 8
2.93519 -0.300076 9.44477 59 36 14
2.54356 -0.300403 9.52786 155 130 118
2.64107 -0.263233 9.50867 96 62 40
1.37376 -0.175706 9.19216 157 116 92
2.68768 -0.0559289 9.389 198 154 134
2.68504 -0.0372834 9.37843 98 52 30
3.05301 0.0394989 9.4674 64 42 31
-0.438644 -0.0585677 8.96519 90 85 95
2.52786 0.0448219 9.45731 150 114 96
2.5107 0.0546892 9.4503 127 86 68
1.08347 0.0728801 9.21196 214 190 180
1.387 0.0690306 9.0309 64 47 32
0.975847 0.0740608 9.22671 157 132 120
2.89536 0.156456 9.48968 96 80 72
0.974957 0.10877 9.32695 150 127 122
1.10933 0.109455 9.27327 153 106 96
1.34244 0.108653 9.06085 54 38 23
1.48429 0.168127 9.09327 107 91 86
